0.788900 -0.253138 0.491225 0.669366 -0.737691 -0.088097 
0.788957 -0.068219 0.486288 0.607137 0.753757 0.251465 
0.788957 -0.253138 0.486288 0.607138 -0.753757 0.251462 
0.789120 -0.068219 0.486045 0.464676 0.753782 0.464639 
0.789120 -0.253138 0.486045 0.464678 -0.753782 0.464636 
0.789363 -0.068219 0.485882 0.251476 0.753770 0.607116 
0.789363 -0.253138 0.485882 0.251479 -0.753770 0.607115 
0.789650 -0.068219 0.485825 0.067007 0.729855 0.680310 
0.789650 -0.253138 0.485825 0.067008 -0.729850 0.680316 
0.790300 -0.068219 0.485825 -0.227460 0.804187 0.549131 
0.790300 -0.253138 0.485825 -0.227460 -0.804189 0.549129 
0.791950 -0.068219 0.487475 -0.297113 0.630264 0.717281 
0.791950 -0.253138 0.487475 -0.297112 -0.630261 0.717283 
0.792900 -0.068219 0.487475 -0.066988 0.729842 0.680325 
0.792900 -0.253138 0.487475 -0.066987 -0.729848 0.680319 
0.793187 -0.068219 0.487532 -0.251479 0.753788 0.607093 
0.793187 -0.253138 0.487532 -0.251476 -0.753788 0.607094 
0.793430 -0.068219 0.487695 -0.464684 0.753751 0.464682 
0.793430 -0.253138 0.487695 -0.464682 -0.753751 0.464684 
0.793593 -0.068219 0.487938 -0.607093 0.753803 0.251433 
0.793593 -0.253138 0.487938 -0.607092 -0.753803 0.251436 
0.793650 -0.068219 0.488225 -0.680338 0.729834 0.066948 
0.793650 -0.253138 0.488225 -0.680345 -0.729828 0.066949 
0.793650 -0.068219 0.489175 -0.717283 0.630262 0.297112 
0.793650 -0.253138 0.489175 -0.717281 -0.630264 0.297113 
0.795300 -0.068219 0.490825 -0.549129 0.804189 0.227460 
0.795300 -0.253138 0.490825 -0.549130 -0.804188 0.227460 
0.795300 -0.068219 0.491475 -0.680313 0.729852 -0.067014 
0.795300 -0.253138 0.491475 -0.680307 -0.729857 -0.067013 
0.795243 -0.068219 0.491762 -0.607093 0.753778 -0.251507 
0.795243 -0.253138 0.491762 -0.607094 -0.753778 -0.251505 
0.795080 -0.068219 0.492005 -0.464682 0.753751 -0.464684 
0.795080 -0.253138 0.492005 -0.464684 -0.753751 -0.464682 
0.794837 -0.068219 0.492168 -0.251476 0.753788 -0.607094 
0.794837 -0.253138 0.492168 -0.251479 -0.753788 -0.607093 
0.794550 -0.068219 0.492225 -0.066987 0.729847 -0.680321 
0.794550 -0.253138 0.492225 -0.066988 -0.729842 -0.680325 
0.789900 -0.068219 0.492225 0.088110 0.737696 -0.669359 
0.789900 -0.253138 0.492225 0.088110 -0.737698 -0.669357 
0.789400 -0.068219 0.492091 0.318851 0.770268 -0.552287 
0.789400 -0.253138 0.492091 0.318850 -0.770268 -0.552288 
0.789034 -0.068219 0.491725 0.552289 0.770273 -0.318835 
0.789034 -0.253138 0.491725 0.552289 -0.770273 -0.318837 
0.815450 -0.253138 0.458225 0.000000 -0.707107 0.707107 
0.814400 -0.253138 0.458225 -0.577351 -0.577350 0.577349 
0.800400 -0.253138 0.493725 0.577350 -0.577350 0.577350 
0.815450 -0.253138 0.468174 0.612369 -0.707107 0.353559 
0.813400 -0.253138 0.471725 0.615995 -0.770263 0.165059 
0.809400 -0.253138 0.470261 -0.318861 -0.770265 0.552286 
0.793580 -0.253138 0.485425 -0.227457 -0.804186 -0.549134 
0.800952 -0.253138 0.482293 0.410992 -0.737700 0.535615 
0.795700 -0.253138 0.487545 0.549133 -0.804187 0.227458 
0.795700 -0.253138 0.489225 0.301511 -0.904534 -0.301512 
0.800400 -0.253138 0.489225 0.577351 -0.577350 -0.577350 
0.791900 -0.253138 0.480725 0.577351 -0.577350 -0.577350 
0.791900 -0.253138 0.485425 0.301511 -0.904534 -0.301511 
0.805400 -0.253138 0.479725 0.165056 -0.770262 0.615997 
0.809400 -0.253138 0.479725 -0.165056 -0.770262 0.615998 
0.815450 -0.253138 0.465675 0.000000 -1.000000 0.000000 
0.809400 -0.253138 0.467725 -0.165056 -0.770262 -0.615997 
0.805400 -0.253138 0.467725 0.165056 -0.770262 -0.615997 
0.807400 -0.253138 0.469725 0.000002 -0.770259 0.637731 
0.805400 -0.253138 0.470261 0.318859 -0.770261 0.552292 
0.801400 -0.253138 0.475725 -0.615998 -0.770262 -0.165055 
0.813400 -0.253138 0.475725 0.615996 -0.770263 -0.165058 
0.810864 -0.253138 0.471725 -0.552291 -0.770260 0.318863 
0.798832 -0.253138 0.480173 -0.535614 -0.737701 -0.410992 
0.803936 -0.253138 0.471725 0.552285 -0.770263 0.318867 
0.801400 -0.253138 0.471725 -0.615997 -0.770262 0.165056 
0.801849 -0.253138 0.465675 0.353552 -0.707108 -0.612372 
0.827400 -0.253138 0.493725 0.577350 -0.577350 0.577350 
0.827400 -0.253138 0.480725 0.577350 -0.577351 -0.577350 
0.815450 -0.253138 0.493725 0.000000 -0.707107 0.707107 
0.819100 -0.253138 0.489225 -0.301511 -0.904534 -0.301511 
0.819100 -0.253138 0.487545 -0.549133 -0.804187 0.227458 
0.813848 -0.253138 0.482293 -0.410993 -0.737700 0.535615 
0.815450 -0.253138 0.479276 0.612370 -0.707107 -0.353558 
0.815450 -0.253138 0.483895 -0.500000 -0.707107 0.500000 
0.815968 -0.253138 0.480173 0.535614 -0.737701 -0.410993 
0.821220 -0.253138 0.485425 0.227459 -0.804187 -0.549132 
0.822900 -0.253138 0.485425 -0.301512 -0.904534 -0.301511 
0.822900 -0.253138 0.480725 -0.577350 -0.577350 -0.577351 
0.814400 -0.253138 0.493725 -0.577351 -0.577350 0.577349 
0.814400 -0.253138 0.489225 -0.577350 -0.577350 -0.577350 
0.815450 -0.253138 0.489225 0.000000 -0.707107 -0.707106 
0.813848 -0.253138 0.465157 -0.410992 -0.737702 -0.535614 
0.815450 -0.253138 0.463555 -0.500000 -0.707107 -0.500000 
0.819100 -0.253138 0.459905 -0.549133 -0.804187 -0.227458 
0.827400 -0.253138 0.465675 0.707107 -0.707107 0.000000 
0.815450 -0.253138 0.453725 0.000000 -0.707107 -0.707107 
0.821220 -0.253138 0.462025 0.227459 -0.804188 0.549131 
0.822900 -0.253138 0.462025 -0.301511 -0.904534 0.301511 
0.822900 -0.253138 0.465675 -0.707106 -0.707107 0.000000 
0.827400 -0.253138 0.466725 0.577349 -0.577351 0.577351 
0.822900 -0.253138 0.466725 -0.577350 -0.577350 0.577350 
0.819100 -0.253138 0.458225 -0.301511 -0.904534 0.301511 
0.815968 -0.253138 0.467277 0.535617 -0.737699 0.410993 
0.800400 -0.253138 0.458225 0.577350 -0.577350 0.577351 
0.795700 -0.253138 0.458225 0.301511 -0.904534 0.301511 
0.798832 -0.253138 0.467277 -0.535615 -0.737700 0.410992 
0.797230 -0.253138 0.465675 -0.500000 -0.707107 0.500000 
0.800952 -0.253138 0.465157 0.410991 -0.737701 -0.535616 
0.795700 -0.253138 0.459905 0.549133 -0.804187 -0.227458 
0.793580 -0.253138 0.462025 -0.227458 -0.804187 0.549132 
0.791900 -0.253138 0.462025 0.301511 -0.904534 0.301511 
0.791900 -0.253138 0.465675 0.707107 -0.707107 0.000000 
0.791900 -0.253138 0.466725 0.577349 -0.577350 0.577351 
0.800400 -0.068219 0.489225 0.577350 0.577350 -0.577351 
0.795700 -0.068219 0.489225 0.301511 0.904534 -0.301511 
0.801400 -0.068219 0.475725 -0.615998 0.770262 -0.165055 
0.798832 -0.068219 0.480173 -0.535615 0.737701 -0.410992 
0.787400 -0.068219 0.493725 -0.577350 0.577350 0.577350 
0.791900 -0.068219 0.485425 0.301512 0.904534 -0.301511 
0.813848 -0.068219 0.482293 -0.410992 0.737700 0.535615 
0.815450 -0.068219 0.483895 -0.500000 0.707107 0.500000 
0.815450 -0.068219 0.479276 0.612369 0.707108 -0.353557 
0.787400 -0.068219 0.480725 -0.577350 0.577351 -0.577350 
0.800400 -0.068219 0.493725 0.577351 0.577350 0.577350 
0.793580 -0.068219 0.485425 -0.227458 0.804186 -0.549133 
0.791900 -0.068219 0.480725 0.577350 0.577350 -0.577351 
0.795700 -0.068219 0.487545 0.549133 0.804187 0.227458 
0.800952 -0.068219 0.482293 0.410992 0.737700 0.535615 
0.805400 -0.068219 0.479725 0.165056 0.770262 0.615998 
0.813400 -0.068219 0.471725 0.615995 0.770264 0.165059 
0.810864 -0.068219 0.471725 -0.552291 0.770260 0.318863 
0.813400 -0.068219 0.475725 0.615996 0.770263 -0.165058 
0.801400 -0.068219 0.471725 -0.615998 0.770262 0.165056 
0.803936 -0.068219 0.471725 0.552285 0.770263 0.318867 
0.798832 -0.068219 0.467277 -0.535615 0.737700 0.410992 
0.809400 -0.068219 0.479725 -0.165056 0.770262 0.615997 
0.815968 -0.068219 0.467277 0.535618 0.737698 0.410992 
0.815450 -0.068219 0.465675 0.000000 1.000000 0.000000 
0.801849 -0.068219 0.465675 0.353553 0.707106 -0.612373 
0.805400 -0.068219 0.470261 0.318859 0.770261 0.552292 
0.805400 -0.068219 0.467725 0.165057 0.770262 -0.615997 
0.807400 -0.068219 0.469725 0.000002 0.770259 0.637731 
0.809400 -0.068219 0.467725 -0.165057 0.770262 -0.615997 
0.809400 -0.068219 0.470261 -0.318861 0.770265 0.552286 
0.812951 -0.068219 0.465675 -0.353553 0.707107 -0.612373 
0.787400 -0.068219 0.453725 -0.577350 0.577350 -0.577350 
0.795700 -0.068219 0.459905 0.549133 0.804187 -0.227458 
0.795700 -0.068219 0.458225 0.301511 0.904534 0.301512 
0.787400 -0.068219 0.465675 -0.707107 0.707107 0.000000 
0.793580 -0.068219 0.462025 -0.227458 0.804187 0.549133 
0.800400 -0.068219 0.453725 0.577350 0.577350 -0.577350 
0.800400 -0.068219 0.458225 0.577351 0.577350 0.577350 
0.797230 -0.068219 0.465675 -0.500000 0.707107 0.500000 
0.800952 -0.068219 0.465157 0.410990 0.737703 -0.535614 
0.791900 -0.068219 0.462025 0.301511 0.904534 0.301511 
0.787400 -0.068219 0.466725 -0.577349 0.577350 0.577351 
0.791900 -0.068219 0.466725 0.577350 0.577350 0.577350 
0.791900 -0.068219 0.465675 0.707106 0.707107 0.000000 
0.815450 -0.068219 0.458225 0.000000 0.707107 0.707106 
0.819100 -0.068219 0.458225 -0.301511 0.904534 0.301511 
0.827400 -0.068219 0.453725 0.577350 0.577350 -0.577350 
0.822900 -0.068219 0.465675 -0.707107 0.707107 0.000000 
0.822900 -0.068219 0.462025 -0.301511 0.904534 0.301511 
0.821220 -0.068219 0.462025 0.227458 0.804187 0.549133 
0.827400 -0.068219 0.465675 0.707106 0.707107 0.000000 
0.819100 -0.068219 0.459905 -0.549133 0.804187 -0.227458 
0.813848 -0.068219 0.465157 -0.410991 0.737701 -0.535616 
0.815450 -0.068219 0.453725 0.000000 0.707106 -0.707107 
0.817570 -0.068219 0.465675 0.500003 0.707109 0.499994 
0.814400 -0.068219 0.453725 -0.577351 0.577350 -0.577349 
0.814400 -0.068219 0.458225 -0.577350 0.577350 0.577350 
0.827400 -0.068219 0.466725 0.577350 0.577350 0.577350 
0.822900 -0.068219 0.466725 -0.577349 0.577350 0.577351 
0.819100 -0.068219 0.487545 -0.549132 0.804187 0.227458 
0.819100 -0.068219 0.489225 -0.301511 0.904534 -0.301511 
0.821220 -0.068219 0.485425 0.227459 0.804187 -0.549132 
0.815450 -0.068219 0.493725 0.000000 0.707107 0.707106 
0.815450 -0.068219 0.489225 0.000000 0.707107 -0.707107 
0.827400 -0.068219 0.493725 0.577350 0.577350 0.577350 
0.827400 -0.068219 0.480725 0.577350 0.577351 -0.577350 
0.815968 -0.068219 0.480173 0.535616 0.737699 -0.410994 
0.822900 -0.068219 0.480725 -0.577351 0.577350 -0.577350 
0.822900 -0.068219 0.485425 -0.301511 0.904534 -0.301511 
0.814400 -0.068219 0.489225 -0.577351 0.577350 -0.577349 
0.814400 -0.068219 0.493725 -0.577350 0.577350 0.577350 
0.005400 -0.197138 0.848151 -0.000000 0.757162 0.653228 
0.005400 -0.197138 0.864151 0.000000 0.637729 0.770261 
0.007400 -0.196602 0.848151 -0.378582 0.655722 0.653226 
0.007400 -0.196602 0.864151 -0.318863 0.552287 0.770263 
0.008864 -0.195138 0.848151 -0.655722 0.378580 0.653227 
0.008864 -0.195138 0.864151 -0.552290 0.318864 0.770261 
0.009400 -0.193138 0.848151 -0.757162 0.000001 0.653227 
0.009400 -0.193138 0.864151 -0.637728 0.000001 0.770262 
0.008864 -0.191138 0.848151 -0.655722 -0.378581 0.653226 
0.008864 -0.191138 0.864151 -0.552288 -0.318864 0.770262 
0.007400 -0.189674 0.848151 -0.378582 -0.655721 0.653227 
0.007400 -0.189674 0.864151 -0.318865 -0.552289 0.770261 
0.005400 -0.189138 0.848151 -0.000000 -0.757163 0.653226 
0.005400 -0.189138 0.864151 -0.000000 -0.637727 0.770263 
0.008431 -0.194888 0.848151 -0.552290 0.318864 0.770261 
0.008900 -0.193138 0.848151 -0.637729 0.000000 0.770261 
0.008431 -0.191388 0.848151 -0.552288 -0.318865 0.770262 
0.007150 -0.190107 0.848151 -0.318863 -0.552290 0.770261 
0.005400 -0.189638 0.848151 0.000000 -0.637729 0.770261 
0.003650 -0.190107 0.848151 0.318864 -0.552290 0.770261 
0.003400 -0.189674 0.848151 0.378582 -0.655721 0.653227 
0.002369 -0.191388 0.848151 0.552289 -0.318864 0.770262 
0.001936 -0.191138 0.848151 0.655722 -0.378581 0.653227 
0.001900 -0.193138 0.848151 0.637729 0.000001 0.770261 
0.001400 -0.193138 0.848151 0.757163 0.000001 0.653227 
0.002369 -0.194888 0.848151 0.552290 0.318864 0.770261 
0.001936 -0.195138 0.848151 0.655722 0.378580 0.653227 
0.003650 -0.196169 0.848151 0.318864 0.552288 0.770262 
0.003400 -0.196602 0.848151 0.378582 0.655722 0.653226 
0.005400 -0.196638 0.848151 -0.000000 0.637729 0.770261 
0.007150 -0.196169 0.848151 -0.318865 0.552288 0.770262 
0.005400 -0.189138 0.509725 -0.000000 -0.757163 -0.653226 
0.005400 -0.189138 0.493725 -0.000000 -0.637727 -0.770263 
0.007400 -0.189674 0.509725 -0.378582 -0.655721 -0.653227 
0.007400 -0.189674 0.493725 -0.318865 -0.552289 -0.770261 
0.008864 -0.191138 0.509725 -0.655722 -0.378581 -0.653227 
0.008864 -0.191138 0.493725 -0.552288 -0.318864 -0.770262 
0.009400 -0.193138 0.509725 -0.757162 0.000001 -0.653227 
0.009400 -0.193138 0.493725 -0.637728 0.000001 -0.770262 
0.008864 -0.195138 0.509725 -0.655722 0.378580 -0.653227 
0.008864 -0.195138 0.493725 -0.552290 0.318864 -0.770261 
0.007400 -0.196602 0.509725 -0.378582 0.655722 -0.653226 
0.007400 -0.196602 0.493725 -0.318864 0.552287 -0.770263 
0.005400 -0.197138 0.509725 -0.000000 0.757162 -0.653228 
0.005400 -0.197138 0.493725 -0.000000 0.637729 -0.770261 
0.005400 -0.196638 0.509725 0.000000 0.637729 -0.770261 
0.003650 -0.196169 0.509725 0.318865 0.552288 -0.770262 
0.003400 -0.196602 0.509725 0.378582 0.655722 -0.653226 
0.002369 -0.194888 0.509725 0.552290 0.318864 -0.770261 
0.001936 -0.195138 0.509725 0.655722 0.378580 -0.653227 
0.001900 -0.193138 0.509725 0.637729 0.000000 -0.770261 
0.001400 -0.193138 0.509725 0.757162 0.000001 -0.653227 
0.002369 -0.191388 0.509725 0.552288 -0.318865 -0.770262 
0.001936 -0.191138 0.509725 0.655722 -0.378581 -0.653226 
0.003650 -0.190107 0.509725 0.318863 -0.552290 -0.770261 
0.003400 -0.189674 0.509725 0.378582 -0.655721 -0.653227 
0.005400 -0.189638 0.509725 -0.000000 -0.637729 -0.770261 
0.007150 -0.190107 0.509725 -0.318864 -0.552290 -0.770261 
0.008431 -0.191388 0.509725 -0.552289 -0.318864 -0.770262 
0.008900 -0.193138 0.509725 -0.637729 0.000001 -0.770261 
0.008431 -0.194888 0.509725 -0.552290 0.318864 -0.770261 
0.007150 -0.196169 0.509725 -0.318864 0.552288 -0.770262 
0.022500 -0.181038 0.864151 0.227457 0.549133 0.804187 
0.023150 -0.181038 0.864151 -0.067001 0.680318 0.729849 
0.022500 -0.181038 0.493725 0.227457 0.549135 -0.804186 
0.023150 -0.181038 0.493725 -0.067001 0.680319 -0.729847 
0.020850 -0.179388 0.864151 0.297108 0.717283 0.630263 
0.020850 -0.179388 0.493725 0.297106 0.717283 -0.630264 
0.019900 -0.179388 0.864151 0.067001 0.680319 0.729847 
0.019900 -0.179388 0.493725 0.067000 0.680317 -0.729849 
0.019613 -0.179331 0.864151 0.251477 0.607112 0.753773 
0.019613 -0.179331 0.493725 0.251476 0.607112 -0.753774 
0.019370 -0.179168 0.864151 0.464676 0.464662 0.753768 
0.019370 -0.179168 0.493725 0.464675 0.464663 -0.753768 
0.019207 -0.178925 0.864151 0.607120 0.251474 0.753768 
0.019207 -0.178925 0.493725 0.607119 0.251475 -0.753768 
0.019150 -0.178638 0.864151 0.680315 0.067005 0.729851 
0.019150 -0.178638 0.493725 0.680317 0.067005 -0.729849 
0.019150 -0.177688 0.864151 0.717283 0.297107 0.630264 
0.019150 -0.177688 0.493725 0.717283 0.297108 -0.630263 
0.017500 -0.176038 0.864151 0.549134 0.227458 0.804186 
0.017500 -0.176038 0.493725 0.549133 0.227457 -0.804187 
0.017500 -0.175388 0.864151 0.680317 -0.067005 0.729849 
0.017500 -0.175388 0.493725 0.680316 -0.067005 -0.729850 
0.017557 -0.175101 0.864151 0.607112 -0.251482 0.753772 
0.017557 -0.175101 0.493725 0.607113 -0.251481 -0.753772 
0.017720 -0.174858 0.864151 0.464671 -0.464672 0.753764 
0.017720 -0.174858 0.493725 0.464672 -0.464671 -0.753764 
0.017963 -0.174695 0.864151 0.251476 -0.607112 0.753774 
0.017963 -0.174695 0.493725 0.251477 -0.607112 -0.753773 
0.018250 -0.174638 0.864151 0.067000 -0.680317 0.729849 
0.018250 -0.174638 0.493725 0.067001 -0.680319 -0.729847 
0.022900 -0.174638 0.864151 -0.088123 -0.669352 0.737701 
0.022900 -0.174638 0.493725 -0.088122 -0.669350 -0.737703 
0.023400 -0.174772 0.864151 -0.318862 -0.552290 0.770261 
0.023400 -0.174772 0.493725 -0.318861 -0.552291 -0.770261 
0.023766 -0.175138 0.864151 -0.552284 -0.318863 0.770266 
0.023766 -0.175138 0.493725 -0.552283 -0.318865 -0.770266 
0.023900 -0.175638 0.864151 -0.669351 -0.088120 0.737702 
0.023900 -0.175638 0.493725 -0.669353 -0.088120 -0.737700 
0.023900 -0.180288 0.864151 -0.680317 0.067005 0.729849 
0.023900 -0.180288 0.493725 -0.680315 0.067005 -0.729851 
0.023843 -0.180575 0.864151 -0.607118 0.251476 0.753769 
0.023843 -0.180575 0.493725 -0.607118 0.251475 -0.753769 
0.023680 -0.180818 0.864151 -0.464660 0.464670 0.753772 
0.023680 -0.180818 0.493725 -0.464661 0.464669 -0.753772 
0.023437 -0.180981 0.864151 -0.251466 0.607123 0.753768 
0.023437 -0.180981 0.493725 -0.251467 0.607123 -0.753768 
-0.012350 -0.181038 0.864151 0.067001 0.680319 0.729847 
-0.012350 -0.181038 0.493725 0.067001 0.680318 -0.729849 
-0.012637 -0.180981 0.864151 0.251467 0.607123 0.753768 
-0.012637 -0.180981 0.493725 0.251466 0.607123 -0.753768 
-0.012880 -0.180818 0.864151 0.464661 0.464669 0.753772 
-0.012880 -0.180818 0.493725 0.464660 0.464670 -0.753772 
-0.013043 -0.180575 0.864151 0.607118 0.251475 0.753769 
-0.013043 -0.180575 0.493725 0.607118 0.251476 -0.753769 
-0.013100 -0.180288 0.864151 0.680315 0.067005 0.729851 
-0.013100 -0.180288 0.493725 0.680317 0.067005 -0.729849 
-0.013100 -0.175638 0.864151 0.669353 -0.088120 0.737700 
-0.013100 -0.175638 0.493725 0.669351 -0.088120 -0.737702 
-0.012966 -0.175138 0.864151 0.552283 -0.318865 0.770266 
-0.012966 -0.175138 0.493725 0.552284 -0.318863 -0.770266 
-0.012600 -0.174772 0.864151 0.318861 -0.552291 0.770261 
-0.012600 -0.174772 0.493725 0.318862 -0.552290 -0.770261 
-0.012100 -0.174638 0.864151 0.088122 -0.669350 0.737703 
-0.012100 -0.174638 0.493725 0.088123 -0.669352 -0.737701 
-0.007450 -0.174638 0.864151 -0.067001 -0.680319 0.729847 
-0.007450 -0.174638 0.493725 -0.067000 -0.680317 -0.729850 
-0.007163 -0.174695 0.864151 -0.251477 -0.607112 0.753773 
-0.007163 -0.174695 0.493725 -0.251476 -0.607112 -0.753773 
-0.006920 -0.174858 0.864151 -0.464672 -0.464672 0.753764 
-0.006920 -0.174858 0.493725 -0.464671 -0.464673 -0.753764 
-0.006757 -0.175101 0.864151 -0.607112 -0.251481 0.753772 
-0.006757 -0.175101 0.493725 -0.607111 -0.251483 -0.753772 
-0.006700 -0.175388 0.864151 -0.680316 -0.067005 0.729850 
-0.006700 -0.175388 0.493725 -0.680317 -0.067005 -0.729849 
-0.006700 -0.176038 0.864151 -0.549133 0.227457 0.804187 
-0.006700 -0.176038 0.493725 -0.549134 0.227458 -0.804186 
-0.008350 -0.177688 0.864151 -0.717283 0.297108 0.630263 
-0.008350 -0.177688 0.493725 -0.717283 0.297107 -0.630264 
-0.008350 -0.178638 0.864151 -0.680317 0.067005 0.729849 
-0.008350 -0.178638 0.493725 -0.680315 0.067005 -0.729851 
-0.008407 -0.178925 0.864151 -0.607119 0.251476 0.753769 
-0.008407 -0.178925 0.493725 -0.607119 0.251474 -0.753769 
-0.008570 -0.179168 0.864151 -0.464674 0.464664 0.753767 
-0.008570 -0.179168 0.493725 -0.464676 0.464663 -0.753767 
-0.008813 -0.179331 0.864151 -0.251476 0.607112 0.753773 
-0.008813 -0.179331 0.493725 -0.251477 0.607112 -0.753773 
-0.009100 -0.179388 0.864151 -0.067000 0.680317 0.729850 
-0.009100 -0.179388 0.493725 -0.067001 0.680319 -0.729847 
-0.010050 -0.179388 0.864151 -0.297106 0.717283 0.630264 
-0.010050 -0.179388 0.493725 -0.297108 0.717283 -0.630263 
-0.011700 -0.181038 0.864151 -0.227457 0.549134 0.804186 
-0.011700 -0.181038 0.493725 -0.227457 0.549133 -0.804187 
-0.013100 -0.205988 0.864151 0.680319 -0.067002 0.729848 
-0.013100 -0.210638 0.864151 0.669350 0.088122 0.737703 
-0.013100 -0.205988 0.493725 0.680316 -0.067001 -0.729850 
-0.013100 -0.210638 0.493725 0.669352 0.088123 -0.737701 
-0.013043 -0.205701 0.864151 0.607111 -0.251480 0.753774 
-0.013043 -0.205701 0.493725 0.607111 -0.251478 -0.753774 
-0.012880 -0.205458 0.864151 0.464670 -0.464674 0.753764 
-0.012880 -0.205458 0.493725 0.464671 -0.464673 -0.753764 
-0.012637 -0.205295 0.864151 0.251476 -0.607112 0.753773 
-0.012637 -0.205295 0.493725 0.251477 -0.607112 -0.753773 
-0.012350 -0.205238 0.864151 0.067001 -0.680318 0.729849 
-0.012350 -0.205238 0.493725 0.067001 -0.680319 -0.729847 
-0.011700 -0.205238 0.864151 -0.227457 -0.549132 0.804187 
-0.011700 -0.205238 0.493725 -0.227458 -0.549133 -0.804186 
-0.010050 -0.206888 0.864151 -0.297109 -0.717283 0.630263 
-0.010050 -0.206888 0.493725 -0.297108 -0.717283 -0.630263 
-0.009100 -0.206888 0.864151 -0.067001 -0.680319 0.729847 
-0.009100 -0.206888 0.493725 -0.067000 -0.680317 -0.729850 
-0.008813 -0.206945 0.864151 -0.251467 -0.607123 0.753768 
-0.008813 -0.206945 0.493725 -0.251465 -0.607123 -0.753768 
-0.008570 -0.207108 0.864151 -0.464661 -0.464668 0.753773 
-0.008570 -0.207108 0.493725 -0.464660 -0.464669 -0.753773 
-0.008407 -0.207351 0.864151 -0.607119 -0.251474 0.753769 
-0.008407 -0.207351 0.493725 -0.607119 -0.251476 -0.753769 
-0.008350 -0.207638 0.864151 -0.680315 -0.067005 0.729851 
-0.008350 -0.207638 0.493725 -0.680317 -0.067005 -0.729849 
-0.008350 -0.208588 0.864151 -0.717283 -0.297109 0.630263 
-0.008350 -0.208588 0.493725 -0.717283 -0.297110 -0.630263 
-0.006700 -0.210238 0.864151 -0.549133 -0.227459 0.804186 
-0.006700 -0.210238 0.493725 -0.549131 -0.227458 -0.804188 
-0.006700 -0.210888 0.864151 -0.680317 0.067005 0.729849 
-0.006700 -0.210888 0.493725 -0.680316 0.067005 -0.729850 
-0.006757 -0.211175 0.864151 -0.607119 0.251476 0.753769 
-0.006757 -0.211175 0.493725 -0.607119 0.251474 -0.753769 
-0.006920 -0.211418 0.864151 -0.464660 0.464669 0.753773 
-0.006920 -0.211418 0.493725 -0.464661 0.464668 -0.753773 
-0.007163 -0.211581 0.864151 -0.251483 0.607124 0.753762 
-0.007163 -0.211581 0.493725 -0.251485 0.607123 -0.753762 
-0.007450 -0.211638 0.864151 -0.067017 0.680309 0.729855 
-0.007450 -0.211638 0.493725 -0.067017 0.680311 -0.729853 
-0.012100 -0.211638 0.864151 0.088123 0.669352 0.737701 
-0.012100 -0.211638 0.493725 0.088122 0.669350 -0.737703 
-0.012600 -0.211504 0.864151 0.318867 0.552284 0.770264 
-0.012600 -0.211504 0.493725 0.318865 0.552285 -0.770264 
-0.012966 -0.211138 0.864151 0.552289 0.318862 0.770262 
-0.012966 -0.211138 0.493725 0.552288 0.318863 -0.770262 
0.018250 -0.211638 0.864151 0.067017 0.680311 0.729853 
0.022900 -0.211638 0.864151 -0.088122 0.669350 0.737703 
0.018250 -0.211638 0.493725 0.067017 0.680309 -0.729855 
0.022900 -0.211638 0.493725 -0.088123 0.669352 -0.737701 
0.017963 -0.211581 0.864151 0.251484 0.607123 0.753762 
0.017963 -0.211581 0.493725 0.251483 0.607124 -0.753762 
0.017720 -0.211418 0.864151 0.464662 0.464667 0.753773 
0.017720 -0.211418 0.493725 0.464661 0.464668 -0.753773 
0.017557 -0.211175 0.864151 0.607120 0.251474 0.753768 
0.017557 -0.211175 0.493725 0.607119 0.251475 -0.753768 
0.017500 -0.210888 0.864151 0.680316 0.067005 0.729850 
0.017500 -0.210888 0.493725 0.680317 0.067005 -0.729849 
0.017500 -0.210238 0.864151 0.549131 -0.227458 0.804188 
0.017500 -0.210238 0.493725 0.549133 -0.227459 -0.804186 
0.019150 -0.208588 0.864151 0.717283 -0.297110 0.630263 
0.019150 -0.208588 0.493725 0.717283 -0.297109 -0.630263 
0.019150 -0.207638 0.864151 0.680317 -0.067005 0.729849 
0.019150 -0.207638 0.493725 0.680315 -0.067005 -0.729851 
0.019207 -0.207351 0.864151 0.607119 -0.251475 0.753768 
0.019207 -0.207351 0.493725 0.607120 -0.251474 -0.753768 
0.019370 -0.207108 0.864151 0.464661 -0.464668 0.753773 
0.019370 -0.207108 0.493725 0.464662 -0.464667 -0.753773 
0.019613 -0.206945 0.864151 0.251465 -0.607123 0.753768 
0.019613 -0.206945 0.493725 0.251466 -0.607123 -0.753768 
0.019900 -0.206888 0.864151 0.067000 -0.680317 0.729850 
0.019900 -0.206888 0.493725 0.067001 -0.680319 -0.729847 
0.020850 -0.206888 0.864151 0.297108 -0.717283 0.630263 
0.020850 -0.206888 0.493725 0.297109 -0.717283 -0.630263 
0.022500 -0.205238 0.864151 0.227458 -0.549133 0.804186 
0.022500 -0.205238 0.493725 0.227458 -0.549132 -0.804187 
0.023150 -0.205238 0.864151 -0.067001 -0.680319 0.729847 
0.023150 -0.205238 0.493725 -0.067001 -0.680318 -0.729849 
0.023437 -0.205295 0.864151 -0.251477 -0.607112 0.753773 
0.023437 -0.205295 0.493725 -0.251476 -0.607112 -0.753773 
0.023680 -0.205458 0.864151 -0.464671 -0.464673 0.753764 
0.023680 -0.205458 0.493725 -0.464670 -0.464674 -0.753764 
0.023843 -0.205701 0.864151 -0.607111 -0.251478 0.753774 
0.023843 -0.205701 0.493725 -0.607111 -0.251480 -0.753774 
0.023900 -0.205988 0.864151 -0.680316 -0.067001 0.729850 
0.023900 -0.205988 0.493725 -0.680319 -0.067002 -0.729848 
0.023900 -0.210638 0.864151 -0.669352 0.088123 0.737701 
0.023900 -0.210638 0.493725 -0.669350 0.088122 -0.737703 
0.023766 -0.211138 0.864151 -0.552289 0.318863 0.770262 
0.023766 -0.211138 0.493725 -0.552289 0.318862 -0.770262 
0.023400 -0.211504 0.864151 -0.318865 0.552285 0.770264 
0.023400 -0.211504 0.493725 -0.318867 0.552284 -0.770264 
-0.010100 -0.185088 0.493725 0.707107 0.000000 -0.707107 
-0.010100 -0.186138 0.493725 0.577348 -0.577352 -0.577351 
-0.014600 -0.186138 0.493725 -0.577350 -0.577350 -0.577350 
0.025400 -0.213138 0.493725 0.577350 -0.577350 -0.577351 
0.012400 -0.213138 0.493725 -0.577350 -0.577349 -0.577352 
0.025400 -0.200138 0.493725 0.577349 0.577349 -0.577352 
0.017100 -0.206958 0.493725 -0.549133 -0.227458 -0.804187 
0.013968 -0.199586 0.493725 0.535615 0.410992 -0.737700 
0.019220 -0.204838 0.493725 0.227458 0.549134 -0.804186 
0.020900 -0.204838 0.493725 -0.301511 0.301511 -0.904534 
0.020900 -0.200138 0.493725 -0.577350 0.577350 -0.577350 
0.012400 -0.208638 0.493725 -0.577350 0.577350 -0.577350 
0.017100 -0.208638 0.493725 -0.301512 0.301511 -0.904534 
-0.000600 -0.191138 0.493725 -0.615997 -0.165056 -0.770262 
0.003400 -0.189674 0.493725 0.318865 -0.552289 -0.770261 
0.001936 -0.191138 0.493725 0.552288 -0.318864 -0.770262 
0.011400 -0.195138 0.493725 0.615998 0.165056 -0.770262 
0.011400 -0.191138 0.493725 0.615999 -0.165056 -0.770261 
0.007400 -0.199138 0.493725 -0.165056 -0.615999 -0.770261 
-0.000600 -0.195138 0.493725 -0.615998 0.165056 -0.770262 
0.001400 -0.193138 0.493725 0.637728 0.000001 -0.770262 
0.001936 -0.195138 0.493725 0.552290 0.318864 -0.770261 
0.007400 -0.187138 0.493725 -0.165056 0.615998 -0.770262 
0.003400 -0.187138 0.493725 0.165056 0.615999 -0.770261 
-0.000151 -0.185088 0.493725 0.353553 0.612372 -0.707107 
-0.002650 -0.185088 0.493725 0.000000 0.000000 -1.000000 
0.011848 -0.201706 0.493725 -0.410992 -0.535616 -0.737700 
0.003400 -0.196602 0.493725 0.318864 0.552287 -0.770263 
0.003400 -0.199138 0.493725 0.165056 -0.615998 -0.770262 
-0.002650 -0.198689 0.493725 -0.612373 0.353554 -0.707106 
0.025400 -0.173138 0.493725 0.577350 0.577350 -0.577350 
0.012400 -0.173138 0.493725 -0.577350 0.577350 -0.577351 
0.025400 -0.185088 0.493725 0.707107 0.000000 -0.707106 
0.020900 -0.181438 0.493725 -0.301511 -0.301512 -0.904534 
0.019220 -0.181438 0.493725 0.227458 -0.549133 -0.804186 
0.013968 -0.186690 0.493725 0.535615 -0.410991 -0.737701 
0.010951 -0.185088 0.493725 -0.353553 0.612372 -0.707107 
0.015570 -0.185088 0.493725 0.500000 -0.500000 -0.707107 
0.011848 -0.184570 0.493725 -0.410993 0.535616 -0.737699 
0.017100 -0.179318 0.493725 -0.549134 0.227458 -0.804186 
0.017100 -0.177638 0.493725 -0.301511 -0.301511 -0.904534 
0.012400 -0.177638 0.493725 -0.577350 -0.577350 -0.577350 
0.025400 -0.186138 0.493725 0.577348 -0.577352 -0.577351 
0.020900 -0.186138 0.493725 -0.577350 -0.577350 -0.577350 
0.020900 -0.185088 0.493725 -0.707106 0.000000 -0.707108 
-0.014600 -0.173138 0.493725 -0.577350 0.577350 -0.577350 
-0.002650 -0.173138 0.493725 0.000000 0.707107 -0.707107 
-0.003168 -0.186690 0.493725 -0.535617 -0.410992 -0.737699 
-0.004770 -0.185088 0.493725 -0.500000 -0.500000 -0.707107 
-0.008420 -0.181438 0.493725 -0.227458 -0.549134 -0.804186 
-0.014600 -0.185088 0.493725 -0.707106 0.000000 -0.707107 
-0.006300 -0.177638 0.493725 0.301512 -0.301511 -0.904534 
-0.006300 -0.179318 0.493725 0.549133 0.227458 -0.804186 
-0.002650 -0.177638 0.493725 0.000000 -0.707106 -0.707108 
-0.001600 -0.173138 0.493725 0.577352 0.577348 -0.577351 
-0.001600 -0.177638 0.493725 0.577350 -0.577350 -0.577350 
-0.010100 -0.181438 0.493725 0.301511 -0.301511 -0.904534 
-0.001048 -0.184570 0.493725 0.410991 0.535615 -0.737701 
-0.010100 -0.200138 0.493725 0.577350 0.577350 -0.577350 
-0.010100 -0.204838 0.493725 0.301511 0.301512 -0.904534 
-0.014600 -0.213138 0.493725 -0.577350 -0.577350 -0.577351 
-0.001048 -0.201706 0.493725 0.410992 -0.535615 -0.737700 
-0.002650 -0.203308 0.493725 0.500000 -0.499999 -0.707107 
-0.003168 -0.199586 0.493725 -0.535615 0.410992 -0.737700 
-0.014600 -0.200138 0.493725 -0.577349 0.577350 -0.577352 
-0.002650 -0.213138 0.493725 0.000000 -0.707106 -0.707107 
-0.008420 -0.204838 0.493725 -0.227458 0.549133 -0.804186 
-0.006300 -0.206958 0.493725 0.549134 -0.227458 -0.804186 
-0.006300 -0.208638 0.493725 0.301511 0.301511 -0.904534 
-0.002650 -0.208638 0.493725 0.000000 0.707106 -0.707107 
-0.001600 -0.208638 0.493725 0.577352 0.577348 -0.577351 
-0.001600 -0.213138 0.493725 0.577350 -0.577350 -0.577350 
0.020900 -0.200138 0.864151 -0.577350 0.577350 0.577350 
0.020900 -0.204838 0.864151 -0.301511 0.301512 0.904534 
0.025400 -0.213138 0.864151 0.577350 -0.577350 0.577351 
0.007400 -0.199138 0.864151 -0.165056 -0.615998 0.770262 
0.011848 -0.201706 0.864151 -0.410992 -0.535616 0.737700 
0.017100 -0.208638 0.864151 -0.301511 0.301511 0.904534 
0.012400 -0.208638 0.864151 -0.577350 0.577350 0.577350 
0.012400 -0.213138 0.864151 -0.577350 -0.577350 0.577352 
0.025400 -0.200138 0.864151 0.577349 0.577350 0.577352 
0.013968 -0.186690 0.864151 0.535616 -0.410992 0.737700 
0.015570 -0.185088 0.864151 0.499999 -0.499999 0.707108 
0.010951 -0.185088 0.864151 -0.353554 0.612373 0.707106 
0.017100 -0.206958 0.864151 -0.549134 -0.227458 0.804186 
0.003400 -0.187138 0.864151 0.165056 0.615998 0.770262 
0.001936 -0.191138 0.864151 0.552288 -0.318864 0.770262 
0.003400 -0.189674 0.864151 0.318865 -0.552289 0.770261 
0.019220 -0.204838 0.864151 0.227458 0.549133 0.804187 
0.013968 -0.199586 0.864151 0.535616 0.410992 0.737700 
0.011400 -0.195138 0.864151 0.615999 0.165056 0.770261 
0.007400 -0.187138 0.864151 -0.165056 0.615998 0.770262 
0.011400 -0.191138 0.864151 0.615998 -0.165056 0.770262 
0.003400 -0.199138 0.864151 0.165056 -0.615999 0.770261 
0.003400 -0.196602 0.864151 0.318864 0.552287 0.770263 
-0.001048 -0.201706 0.864151 0.410992 -0.535615 0.737701 
-0.002650 -0.198689 0.864151 -0.612372 0.353553 0.707107 
0.001936 -0.195138 0.864151 0.552290 0.318864 0.770261 
-0.000600 -0.195138 0.864151 -0.615998 0.165056 0.770262 
0.001400 -0.193138 0.864151 0.637728 0.000001 0.770262 
-0.000600 -0.191138 0.864151 -0.615999 -0.165056 0.770261 
-0.002650 -0.187587 0.864151 -0.612372 -0.353553 0.707107 
-0.002650 -0.185088 0.864151 0.000000 0.000000 1.000000 
-0.014600 -0.213138 0.864151 -0.577350 -0.577350 0.577351 
-0.002650 -0.213138 0.864151 0.000000 -0.707107 0.707106 
-0.014600 -0.200138 0.864151 -0.577350 0.577350 0.577352 
-0.006300 -0.208638 0.864151 0.301512 0.301511 0.904534 
-0.006300 -0.206958 0.864151 0.549133 -0.227458 0.804187 
-0.002650 -0.203308 0.864151 0.500000 -0.500000 0.707107 
-0.003168 -0.199586 0.864151 -0.535616 0.410992 0.737700 
-0.008420 -0.204838 0.864151 -0.227458 0.549134 0.804186 
-0.010100 -0.204838 0.864151 0.301511 0.301511 0.904534 
-0.010100 -0.200138 0.864151 0.577350 0.577350 0.577350 
-0.001600 -0.213138 0.864151 0.577352 -0.577348 0.577351 
-0.001600 -0.208638 0.864151 0.577350 0.577350 0.577350 
-0.002650 -0.208638 0.864151 0.000000 0.707106 0.707108 
-0.010100 -0.185088 0.864151 0.707106 0.000000 0.707108 
-0.010100 -0.181438 0.864151 0.301511 -0.301512 0.904534 
-0.014600 -0.173138 0.864151 -0.577350 0.577350 0.577350 
-0.002650 -0.173138 0.864151 0.000000 0.707106 0.707108 
-0.001048 -0.184570 0.864151 0.410992 0.535617 0.737699 
-0.002650 -0.182968 0.864151 0.499999 0.500000 0.707107 
-0.006300 -0.179318 0.864151 0.549134 0.227458 0.804186 
-0.014600 -0.185088 0.864151 -0.707107 0.000000 0.707106 
-0.008420 -0.181438 0.864151 -0.227458 -0.549133 0.804186 
-0.002650 -0.177638 0.864151 0.000000 -0.707106 0.707107 
-0.006300 -0.177638 0.864151 0.301511 -0.301511 0.904534 
-0.003168 -0.186690 0.864151 -0.535615 -0.410992 0.737701 
-0.014600 -0.186138 0.864151 -0.577348 -0.577352 0.577351 
-0.010100 -0.186138 0.864151 0.577350 -0.577350 0.577350 
-0.001600 -0.173138 0.864151 0.577350 0.577350 0.577350 
-0.001600 -0.177638 0.864151 0.577352 -0.577348 0.577351 
0.019220 -0.181438 0.864151 0.227458 -0.549134 0.804186 
0.020900 -0.181438 0.864151 -0.301511 -0.301511 0.904534 
0.017100 -0.179318 0.864151 -0.549133 0.227458 0.804187 
0.020900 -0.185088 0.864151 -0.707106 0.000000 0.707107 
0.025400 -0.173138 0.864151 0.577350 0.577350 0.577350 
0.017100 -0.177638 0.864151 -0.301512 -0.301511 0.904534 
0.025400 -0.185088 0.864151 0.707106 0.000000 0.707107 
0.011848 -0.184570 0.864151 -0.410992 0.535616 0.737700 
0.012400 -0.173138 0.864151 -0.577350 0.577350 0.577351 
0.012400 -0.177638 0.864151 -0.577350 -0.577350 0.577350 
0.020900 -0.186138 0.864151 -0.577348 -0.577352 0.577351 
0.025400 -0.186138 0.864151 0.577350 -0.577350 0.577350 
0.113350 -0.269138 0.477725 0.000000 0.653226 -0.757163 
0.113350 -0.253138 0.477725 0.000000 0.770263 -0.637727 
0.115350 -0.269138 0.477189 -0.378582 0.653227 -0.655721 
0.115350 -0.253138 0.477189 -0.318865 0.770261 -0.552288 
0.116814 -0.269138 0.475725 -0.655722 0.653227 -0.378581 
0.116814 -0.253138 0.475725 -0.552289 0.770262 -0.318864 
0.117350 -0.269138 0.473725 -0.757162 0.653227 -0.000000 
0.117350 -0.253138 0.473725 -0.637728 0.770262 0.000000 
0.116814 -0.269138 0.471725 -0.655722 0.653227 0.378581 
0.116814 -0.253138 0.471725 -0.552289 0.770262 0.318864 
0.115350 -0.269138 0.470261 -0.378578 0.653226 0.655725 
0.115350 -0.253138 0.470261 -0.318860 0.770263 0.552289 
0.113350 -0.269138 0.469725 0.000000 0.653229 0.757161 
0.113350 -0.253138 0.469725 0.000000 0.770259 0.637731 
0.116381 -0.269138 0.475475 -0.552290 0.770261 -0.318864 
0.116850 -0.269138 0.473725 -0.637729 0.770261 0.000002 
0.116381 -0.269138 0.471975 -0.552289 0.770260 0.318867 
0.115100 -0.269138 0.470694 -0.318863 0.770261 0.552290 
0.113350 -0.269138 0.470225 0.000001 0.770260 0.637730 
0.111600 -0.269138 0.470694 0.318865 0.770261 0.552290 
0.111350 -0.269138 0.470261 0.378578 0.653226 0.655725 
0.110319 -0.269138 0.471975 0.552290 0.770260 0.318866 
0.109886 -0.269138 0.471725 0.655722 0.653227 0.378581 
0.109850 -0.269138 0.473725 0.637729 0.770261 0.000001 
0.109350 -0.269138 0.473725 0.757162 0.653227 0.000000 
0.110319 -0.269138 0.475475 0.552289 0.770261 -0.318865 
0.109886 -0.269138 0.475725 0.655722 0.653227 -0.378581 
0.111600 -0.269138 0.476756 0.318864 0.770261 -0.552290 
0.111350 -0.269138 0.477189 0.378582 0.653227 -0.655721 
0.113350 -0.269138 0.477225 -0.000000 0.770260 -0.637730 
0.115100 -0.269138 0.476756 -0.318865 0.770261 -0.552289 
0.113350 -0.780619 0.469725 0.000000 -0.653229 0.757161 
0.113350 -0.796619 0.469725 0.000000 -0.770259 0.637731 
0.115350 -0.780619 0.470261 -0.378578 -0.653226 0.655725 
0.115350 -0.796619 0.470261 -0.318860 -0.770263 0.552289 
0.116814 -0.780619 0.471725 -0.655722 -0.653227 0.378581 
0.116814 -0.796619 0.471725 -0.552289 -0.770262 0.318864 
0.117350 -0.780619 0.473725 -0.757162 -0.653227 0.000000 
0.117350 -0.796619 0.473725 -0.637728 -0.770262 -0.000000 
0.116814 -0.780619 0.475725 -0.655722 -0.653227 -0.378581 
0.116814 -0.796619 0.475725 -0.552289 -0.770262 -0.318864 
0.115350 -0.780619 0.477189 -0.378582 -0.653227 -0.655721 
0.115350 -0.796619 0.477189 -0.318865 -0.770261 -0.552288 
0.113350 -0.780619 0.477725 0.000000 -0.653226 -0.757163 
0.113350 -0.796619 0.477725 0.000000 -0.770263 -0.637727 
0.113350 -0.780619 0.477225 0.000001 -0.770260 -0.637730 
0.111600 -0.780619 0.476756 0.318865 -0.770261 -0.552290 
0.111350 -0.780619 0.477189 0.378582 -0.653227 -0.655721 
0.110319 -0.780619 0.475475 0.552290 -0.770261 -0.318864 
0.109886 -0.780619 0.475725 0.655722 -0.653227 -0.378581 
0.109850 -0.780619 0.473725 0.637729 -0.770261 0.000002 
0.109350 -0.780619 0.473725 0.757162 -0.653227 -0.000000 
0.110319 -0.780619 0.471975 0.552289 -0.770260 0.318867 
0.109886 -0.780619 0.471725 0.655722 -0.653227 0.378581 
0.111600 -0.780619 0.470694 0.318864 -0.770261 0.552290 
0.111350 -0.780619 0.470261 0.378578 -0.653226 0.655725 
0.113350 -0.780619 0.470225 -0.000000 -0.770260 0.637730 
0.115100 -0.780619 0.470694 -0.318865 -0.770261 0.552289 
0.116381 -0.780619 0.471975 -0.552290 -0.770260 0.318866 
0.116850 -0.780619 0.473725 -0.637729 -0.770261 0.000001 
0.116381 -0.780619 0.475475 -0.552289 -0.770261 -0.318865 
0.115100 -0.780619 0.476756 -0.318863 -0.770261 -0.552290 
0.130450 -0.253138 0.461625 0.227460 0.804187 -0.549132 
0.131100 -0.253138 0.461625 -0.067022 0.729831 -0.680334 
0.130450 -0.796619 0.461625 0.227458 -0.804183 -0.549139 
0.131100 -0.796619 0.461625 -0.067018 -0.729853 -0.680311 
0.128800 -0.253138 0.459975 0.297110 0.630261 -0.717285 
0.128800 -0.796619 0.459975 0.297111 -0.630261 -0.717284 
0.127850 -0.253138 0.459975 0.067018 0.729853 -0.680311 
0.127850 -0.796619 0.459975 0.067022 -0.729835 -0.680330 
0.127563 -0.253138 0.459918 0.251484 0.753743 -0.607146 
0.127563 -0.796619 0.459918 0.251496 -0.753743 -0.607141 
0.127320 -0.253138 0.459755 0.464668 0.753755 -0.464690 
0.127320 -0.796619 0.459755 0.464677 -0.753755 -0.464681 
0.127157 -0.253138 0.459512 0.607134 0.753754 -0.251482 
0.127157 -0.796619 0.459512 0.607139 -0.753754 -0.251470 
0.127100 -0.253138 0.459225 0.680339 0.729828 -0.067003 
0.127100 -0.796619 0.459225 0.680321 -0.729846 -0.066998 
0.127100 -0.253138 0.458275 0.717284 0.630262 -0.297109 
0.127100 -0.796619 0.458275 0.717285 -0.630261 -0.297108 
0.125450 -0.253138 0.456625 0.549140 0.804182 -0.227457 
0.125450 -0.796619 0.456625 0.549133 -0.804186 -0.227459 
0.125450 -0.253138 0.455975 0.680317 0.729848 0.067004 
0.125450 -0.796619 0.455975 0.680340 -0.729827 0.067009 
0.125507 -0.253138 0.455688 0.607143 0.753750 0.251474 
0.125507 -0.796619 0.455688 0.607138 -0.753750 0.251485 
0.125670 -0.253138 0.455445 0.464679 0.753757 0.464676 
0.125670 -0.796619 0.455445 0.464670 -0.753757 0.464685 
0.125913 -0.253138 0.455282 0.251496 0.753743 0.607141 
0.125913 -0.796619 0.455282 0.251484 -0.753743 0.607146 
0.126200 -0.253138 0.455225 0.067022 0.729836 0.680329 
0.126200 -0.796619 0.455225 0.067018 -0.729853 0.680311 
0.130850 -0.253138 0.455225 -0.088133 0.737704 0.669347 
0.130850 -0.796619 0.455225 -0.088131 -0.737708 0.669343 
0.131350 -0.253138 0.455359 -0.318876 0.770261 0.552283 
0.131350 -0.796619 0.455359 -0.318872 -0.770261 0.552285 
0.131716 -0.253138 0.455725 -0.552285 0.770265 0.318862 
0.131716 -0.796619 0.455725 -0.552283 -0.770265 0.318866 
0.131850 -0.253138 0.456225 -0.669348 0.737705 0.088122 
0.131850 -0.796619 0.456225 -0.669352 -0.737701 0.088124 
0.131850 -0.253138 0.460875 -0.680309 0.729854 -0.067021 
0.131850 -0.796619 0.460875 -0.680327 -0.729837 -0.067026 
0.131793 -0.253138 0.461162 -0.607154 0.753739 -0.251481 
0.131793 -0.796619 0.461162 -0.607149 -0.753739 -0.251492 
0.131630 -0.253138 0.461405 -0.464684 0.753762 -0.464662 
0.131630 -0.796619 0.461405 -0.464675 -0.753762 -0.464671 
0.131387 -0.253138 0.461568 -0.251496 0.753743 -0.607141 
0.131387 -0.796619 0.461568 -0.251484 -0.753743 -0.607146 
0.095600 -0.253138 0.461625 0.067018 0.729853 -0.680311 
0.095600 -0.796619 0.461625 0.067022 -0.729831 -0.680334 
0.095313 -0.253138 0.461568 0.251484 0.753743 -0.607146 
0.095313 -0.796619 0.461568 0.251496 -0.753743 -0.607141 
0.095070 -0.253138 0.461405 0.464672 0.753760 -0.464678 
0.095070 -0.796619 0.461405 0.464681 -0.753760 -0.464669 
0.094907 -0.253138 0.461162 0.607143 0.753744 -0.251489 
0.094907 -0.796619 0.461162 0.607148 -0.753744 -0.251477 
0.094850 -0.253138 0.460875 0.680331 0.729834 -0.067018 
0.094850 -0.796619 0.460875 0.680313 -0.729851 -0.067013 
0.094850 -0.253138 0.456225 0.669352 0.737701 0.088124 
0.094850 -0.796619 0.456225 0.669348 -0.737704 0.088122 
0.094984 -0.253138 0.455725 0.552286 0.770264 0.318864 
0.094984 -0.796619 0.455725 0.552288 -0.770263 0.318860 
0.095350 -0.253138 0.455359 0.318873 0.770263 0.552282 
0.095350 -0.796619 0.455359 0.318876 -0.770263 0.552280 
0.095850 -0.253138 0.455225 0.088130 0.737707 0.669344 
0.095850 -0.796619 0.455225 0.088132 -0.737704 0.669347 
0.100500 -0.253138 0.455225 -0.067018 0.729853 0.680311 
0.100500 -0.796619 0.455225 -0.067022 -0.729836 0.680329 
0.100787 -0.253138 0.455282 -0.251488 0.753745 0.607143 
0.100787 -0.796619 0.455282 -0.251499 -0.753745 0.607138 
0.101030 -0.253138 0.455445 -0.464677 0.753758 0.464676 
0.101030 -0.796619 0.455445 -0.464686 -0.753758 0.464667 
0.101193 -0.253138 0.455688 -0.607143 0.753744 0.251489 
0.101193 -0.796619 0.455688 -0.607148 -0.753744 0.251477 
0.101250 -0.253138 0.455975 -0.680336 0.729830 0.067017 
0.101250 -0.796619 0.455975 -0.680313 -0.729851 0.067013 
0.101250 -0.253138 0.456625 -0.549134 0.804186 -0.227459 
0.101250 -0.796619 0.456625 -0.549140 -0.804182 -0.227457 
0.099600 -0.253138 0.458275 -0.717285 0.630261 -0.297107 
0.099600 -0.796619 0.458275 -0.717284 -0.630262 -0.297108 
0.099600 -0.253138 0.459225 -0.680317 0.729849 -0.067006 
0.099600 -0.796619 0.459225 -0.680335 -0.729831 -0.067011 
0.099543 -0.253138 0.459512 -0.607133 0.753754 -0.251484 
0.099543 -0.796619 0.459512 -0.607129 -0.753754 -0.251496 
0.099380 -0.253138 0.459755 -0.464679 0.753751 -0.464686 
0.099380 -0.796619 0.459755 -0.464670 -0.753751 -0.464695 
0.099137 -0.253138 0.459918 -0.251498 0.753746 -0.607138 
0.099137 -0.796619 0.459918 -0.251486 -0.753746 -0.607143 
0.098850 -0.253138 0.459975 -0.067021 0.729835 -0.680330 
0.098850 -0.796619 0.459975 -0.067016 -0.729853 -0.680312 
0.097900 -0.253138 0.459975 -0.297109 0.630262 -0.717284 
0.097900 -0.796619 0.459975 -0.297108 -0.630261 -0.717285 
0.096250 -0.253138 0.461625 -0.227457 0.804182 -0.549140 
0.096250 -0.796619 0.461625 -0.227459 -0.804186 -0.549133 
0.094850 -0.253138 0.486575 0.680317 0.729849 0.067006 
0.094850 -0.253138 0.491225 0.669348 0.737705 -0.088122 
0.094850 -0.796619 0.486575 0.680335 -0.729832 0.067011 
0.094850 -0.796619 0.491225 0.669352 -0.737701 -0.088124 
0.094907 -0.253138 0.486288 0.607133 0.753754 0.251484 
0.094907 -0.796619 0.486288 0.607128 -0.753754 0.251496 
0.095070 -0.253138 0.486045 0.464674 0.753753 0.464688 
0.095070 -0.796619 0.486045 0.464665 -0.753753 0.464697 
0.095313 -0.253138 0.485882 0.251496 0.753743 0.607141 
0.095313 -0.796619 0.485882 0.251484 -0.753743 0.607146 
0.095600 -0.253138 0.485825 0.067022 0.729831 0.680334 
0.095600 -0.796619 0.485825 0.067018 -0.729853 0.680311 
0.096250 -0.253138 0.485825 -0.227459 0.804186 0.549133 
0.096250 -0.796619 0.485825 -0.227457 -0.804182 0.549140 
0.097900 -0.253138 0.487475 -0.297108 0.630261 0.717285 
0.097900 -0.796619 0.487475 -0.297109 -0.630262 0.717284 
0.098850 -0.253138 0.487475 -0.066983 0.729841 0.680328 
0.098850 -0.796619 0.487475 -0.066988 -0.729823 0.680346 
0.099137 -0.253138 0.487532 -0.251471 0.753769 0.607120 
0.099137 -0.796619 0.487532 -0.251483 -0.753769 0.607115 
0.099380 -0.253138 0.487695 -0.464698 0.753740 0.464684 
0.099380 -0.796619 0.487695 -0.464707 -0.753741 0.464675 
0.099543 -0.253138 0.487938 -0.607129 0.753754 0.251496 
0.099543 -0.796619 0.487938 -0.607133 -0.753754 0.251484 
0.099600 -0.253138 0.488225 -0.680335 0.729831 0.067011 
0.099600 -0.796619 0.488225 -0.680317 -0.729849 0.067006 
0.099600 -0.253138 0.489175 -0.717284 0.630262 0.297108 
0.099600 -0.796619 0.489175 -0.717285 -0.630261 0.297107 
0.101250 -0.253138 0.490825 -0.549140 0.804182 0.227457 
0.101250 -0.796619 0.490825 -0.549134 -0.804186 0.227458 
0.101250 -0.253138 0.491475 -0.680317 0.729849 -0.067006 
0.101250 -0.796619 0.491475 -0.680340 -0.729827 -0.067011 
0.101193 -0.253138 0.491762 -0.607133 0.753754 -0.251484 
0.101193 -0.796619 0.491762 -0.607128 -0.753754 -0.251496 
0.101030 -0.253138 0.492005 -0.464707 0.753741 -0.464675 
0.101030 -0.796619 0.492005 -0.464698 -0.753740 -0.464684 
0.100787 -0.253138 0.492168 -0.251485 0.753768 -0.607115 
0.100787 -0.796619 0.492168 -0.251473 -0.753768 -0.607120 
0.100500 -0.253138 0.492225 -0.066990 0.729824 -0.680345 
0.100500 -0.796619 0.492225 -0.066985 -0.729841 -0.680327 
0.095850 -0.253138 0.492225 0.088114 0.737697 -0.669357 
0.095850 -0.796619 0.492225 0.088112 -0.737701 -0.669353 
0.095350 -0.253138 0.492091 0.318857 0.770270 -0.552281 
0.095350 -0.796619 0.492091 0.318853 -0.770270 -0.552283 
0.094984 -0.253138 0.491725 0.552288 0.770263 -0.318860 
0.094984 -0.796619 0.491725 0.552286 -0.770264 -0.318864 
0.126200 -0.253138 0.492225 0.066985 0.729841 -0.680327 
0.130850 -0.253138 0.492225 -0.088113 0.737701 -0.669353 
0.126200 -0.796619 0.492225 0.066990 -0.729824 -0.680345 
0.130850 -0.796619 0.492225 -0.088115 -0.737698 -0.669356 
0.125913 -0.253138 0.492168 0.251470 0.753766 -0.607124 
0.125913 -0.796619 0.492168 0.251481 -0.753766 -0.607119 
0.125670 -0.253138 0.492005 0.464690 0.753740 -0.464693 
0.125670 -0.796619 0.492005 0.464699 -0.753740 -0.464684 
0.125507 -0.253138 0.491762 0.607123 0.753760 -0.251492 
0.125507 -0.796619 0.491762 0.607128 -0.753760 -0.251480 
0.125450 -0.253138 0.491475 0.680344 0.729824 -0.067002 
0.125450 -0.796619 0.491475 0.680321 -0.729846 -0.066998 
0.125450 -0.253138 0.490825 0.549133 0.804186 0.227459 
0.125450 -0.796619 0.490825 0.549140 -0.804182 0.227457 
0.127100 -0.253138 0.489175 0.717285 0.630261 0.297108 
0.127100 -0.796619 0.489175 0.717284 -0.630262 0.297109 
0.127100 -0.253138 0.488225 0.680321 0.729846 0.066998 
0.127100 -0.796619 0.488225 0.680339 -0.729828 0.067003 
0.127157 -0.253138 0.487938 0.607139 0.753754 0.251470 
0.127157 -0.796619 0.487938 0.607134 -0.753754 0.251482 
0.127320 -0.253138 0.487695 0.464705 0.753745 0.464670 
0.127320 -0.796619 0.487695 0.464696 -0.753745 0.464679 
0.127563 -0.253138 0.487532 0.251481 0.753766 0.607119 
0.127563 -0.796619 0.487532 0.251470 -0.753766 0.607124 
0.127850 -0.253138 0.487475 0.066990 0.729823 0.680346 
0.127850 -0.796619 0.487475 0.066985 -0.729841 0.680327 
0.128800 -0.253138 0.487475 0.297111 0.630261 0.717284 
0.128800 -0.796619 0.487475 0.297110 -0.630261 0.717285 
0.130450 -0.253138 0.485825 0.227458 0.804183 0.549139 
0.130450 -0.796619 0.485825 0.227460 -0.804187 0.549132 
0.131100 -0.253138 0.485825 -0.067018 0.729853 0.680311 
0.131100 -0.796619 0.485825 -0.067022 -0.729831 0.680334 
0.131387 -0.253138 0.485882 -0.251484 0.753743 0.607146 
0.131387 -0.796619 0.485882 -0.251496 -0.753743 0.607141 
0.131630 -0.253138 0.486045 -0.464668 0.753755 0.464690 
0.131630 -0.796619 0.486045 -0.464677 -0.753755 0.464681 
0.131793 -0.253138 0.486288 -0.607134 0.753748 0.251499 
0.131793 -0.796619 0.486288 -0.607139 -0.753748 0.251488 
0.131850 -0.253138 0.486575 -0.680330 0.729835 0.067019 
0.131850 -0.796619 0.486575 -0.680313 -0.729852 0.067014 
0.131850 -0.253138 0.491225 -0.669352 0.737701 -0.088124 
0.131850 -0.796619 0.491225 -0.669348 -0.737704 -0.088122 
0.131716 -0.253138 0.491725 -0.552283 0.770265 -0.318866 
0.131716 -0.796619 0.491725 -0.552285 -0.770265 -0.318862 
0.131350 -0.253138 0.492091 -0.318852 0.770268 -0.552286 
0.131350 -0.796619 0.492091 -0.318856 -0.770268 -0.552284 
0.097850 -0.796619 0.465675 0.707107 -0.707106 0.000000 
0.097850 -0.796619 0.466725 0.577347 -0.577351 0.577353 
0.093350 -0.796619 0.466725 -0.577350 -0.577350 0.577350 
0.133350 -0.796619 0.493725 0.577350 -0.577350 0.577350 
0.133350 -0.796619 0.480725 0.577350 -0.577350 -0.577351 
0.120350 -0.796619 0.493725 -0.577352 -0.577349 0.577350 
0.125050 -0.796619 0.487545 -0.549134 -0.804186 0.227459 
0.120350 -0.796619 0.489225 -0.577350 -0.577350 -0.577350 
0.125050 -0.796619 0.489225 -0.301514 -0.904533 -0.301511 
0.107799 -0.796619 0.465675 0.353551 -0.707104 -0.612377 
0.111350 -0.796619 0.467725 0.165057 -0.770263 -0.615997 
0.109886 -0.796619 0.471725 0.552289 -0.770262 0.318864 
0.119350 -0.796619 0.475725 0.615998 -0.770262 -0.165056 
0.121918 -0.796619 0.480173 0.535616 -0.737700 -0.410992 
0.127170 -0.796619 0.485425 0.227458 -0.804185 -0.549136 
0.128850 -0.796619 0.485425 -0.301511 -0.904534 -0.301511 
0.128850 -0.796619 0.480725 -0.577349 -0.577349 -0.577352 
