-0.340124 -0.244869 0.010853 2.471078 1.896107 -3.403406 
-0.340642 -0.248591 0.010853 -2.221445 -2.221436 -3.141597 
-0.340642 -0.243972 0.010853 2.720706 1.570784 -3.141579 
-0.342244 -0.246989 0.010853 -1.896120 -2.471076 -3.403394 
-0.328692 -0.218421 0.010853 1.570796 1.570795 -1.570795 
-0.328692 -0.230371 0.010853 3.141592 0.000000 -3.141592 
-0.346692 -0.232421 0.010853 -0.785395 2.931147 -3.665190 
-0.342244 -0.229853 0.010853 -1.896117 2.471074 -3.403394 
-0.340642 -0.230371 0.010853 0.000000 0.000000 -6.283185 
-0.340642 -0.228251 0.010853 -2.221443 2.221438 -3.141595 
-0.336992 -0.224601 0.010853 -2.681533 1.110718 -3.926989 
-0.340642 -0.218421 0.010853 0.000000 3.141570 -3.141592 
-0.334872 -0.226721 0.010853 1.110720 -2.681517 -3.926991 
-0.333192 -0.226721 0.010853 -1.570800 -1.570810 -4.712389 
-0.333192 -0.230371 0.010853 -3.141570 0.000000 -3.141593 
-0.328692 -0.231421 0.010853 1.570773 -1.570789 -1.570796 
-0.333192 -0.231421 0.010853 -1.570796 -1.570796 -1.570796 
-0.336992 -0.222921 0.010853 -1.570796 -1.570796 -4.712389 
-0.340124 -0.231973 0.010853 2.471082 -1.896106 -3.403404 
-0.355692 -0.222921 0.010853 1.570796 -1.570789 -1.570796 
-0.360392 -0.222921 0.010853 1.570810 -1.570796 -4.712389 
-0.368692 -0.218421 0.010853 -1.570795 1.570796 -1.570795 
-0.360392 -0.224601 0.010853 2.681518 1.110719 -3.926990 
-0.358862 -0.230371 0.010853 -2.221444 -2.221444 -3.141593 
-0.355140 -0.229853 0.010853 1.896112 2.471074 -3.403400 
-0.355692 -0.218421 0.010853 1.570789 1.570796 -1.570798 
-0.368692 -0.230371 0.010853 -3.141570 0.000000 -3.141594 
-0.362512 -0.226721 0.010853 -1.110720 -2.681530 -3.926991 
-0.364192 -0.226721 0.010853 1.570796 -1.570796 -4.712390 
-0.364192 -0.230371 0.010853 3.141596 0.000000 -3.141593 
-0.364192 -0.231421 0.010853 1.570773 -1.570789 -1.570796 
-0.368692 -0.231421 0.010853 -1.570796 -1.570796 -1.570796 
-0.343141 -0.230371 0.550603 -1.570788 2.720707 3.141587 
-0.340642 -0.230371 0.550603 0.000000 0.000000 6.283185 
-0.342244 -0.229853 0.550603 -1.896114 2.471076 3.403400 
-0.355692 -0.253921 0.550603 1.570796 1.570789 1.570796 
-0.360392 -0.253921 0.550603 1.570810 1.570796 4.712390 
-0.368692 -0.258421 0.550603 -1.570796 -1.570796 1.570795 
-0.354692 -0.240421 0.550603 -2.931149 0.785399 3.665191 
-0.357260 -0.244869 0.550603 -2.471067 1.896121 3.403396 
-0.360392 -0.252241 0.550603 2.681520 -1.110717 3.926987 
-0.342244 -0.246989 0.550603 -1.896116 -2.471072 3.403394 
-0.340642 -0.248591 0.550603 -2.221448 -2.221439 3.141597 
-0.340642 -0.243972 0.550603 2.720709 1.570785 3.141579 
-0.364192 -0.250121 0.550603 1.570789 1.570796 4.712389 
-0.364192 -0.245421 0.550603 1.570796 1.570789 1.570796 
-0.368692 -0.245421 0.550603 -1.570796 1.570796 1.570800 
-0.362512 -0.250121 0.550603 -1.110718 2.681534 3.926988 
-0.355692 -0.258421 0.550603 1.570789 -1.570796 1.570797 
-0.355140 -0.246989 0.550603 1.896121 -2.471071 3.403397 
-0.350692 -0.244421 0.550603 0.785395 -2.931150 3.665190 
-0.342692 -0.236421 0.550603 2.931145 -0.785399 3.665193 
-0.346692 -0.234957 0.550603 -1.517261 -2.628006 3.665182 
-0.345228 -0.236421 0.550603 -2.627987 -1.517268 3.665213 
-0.342692 -0.240421 0.550603 2.931147 0.785401 3.665194 
-0.354692 -0.236421 0.550603 -2.931148 -0.785399 3.665192 
-0.352156 -0.236421 0.550603 2.627993 -1.517277 3.665189 
-0.357260 -0.231973 0.550603 -2.471075 -1.896124 3.403391 
-0.346692 -0.244421 0.550603 -0.785397 -2.931150 3.665189 
-0.354243 -0.230371 0.550603 1.570786 2.720705 3.141587 
-0.350692 -0.234957 0.550603 1.517266 -2.627995 3.665196 
-0.350692 -0.232421 0.550603 0.785397 2.931147 3.665191 
-0.348692 -0.234421 0.550603 -0.000006 -3.034548 3.665187 
-0.346692 -0.232421 0.550603 -0.785397 2.931149 3.665190 
-0.340124 -0.231973 0.550603 2.471072 -1.896122 3.403391 
-0.338522 -0.230371 0.550603 2.221441 -2.221441 3.141593 
-0.368692 -0.218421 0.550603 -1.570796 1.570796 1.570795 
-0.360392 -0.222921 0.550603 1.570796 -1.570789 4.712389 
-0.368692 -0.230371 0.550603 -3.141592 0.000000 3.141594 
-0.355692 -0.218421 0.550603 1.570796 1.570796 1.570799 
-0.360392 -0.224601 0.550603 2.681533 1.110719 3.926990 
-0.355692 -0.222921 0.550603 1.570789 -1.570796 1.570796 
-0.358862 -0.230371 0.550603 -2.221441 -2.221441 3.141593 
-0.355140 -0.229853 0.550603 1.896113 2.471075 3.403400 
-0.362512 -0.226721 0.550603 -1.110721 -2.681517 3.926991 
-0.364192 -0.226721 0.550603 1.570800 -1.570810 4.712389 
-0.368692 -0.231421 0.550603 -1.570773 -1.570789 1.570796 
-0.364192 -0.231421 0.550603 1.570796 -1.570796 1.570796 
-0.364192 -0.230371 0.550603 3.141570 0.000000 3.141593 
-0.340642 -0.222921 0.550603 0.000000 -3.141570 3.141593 
-0.336992 -0.222921 0.550603 -1.570810 -1.570800 4.712389 
-0.328692 -0.218421 0.550603 1.570795 1.570796 1.570795 
-0.328692 -0.230371 0.550603 3.141570 0.000000 3.141592 
-0.336992 -0.224601 0.550603 -2.681518 1.110718 3.926989 
-0.333192 -0.230371 0.550603 -3.141596 0.000000 3.141593 
-0.333192 -0.226721 0.550603 -1.570796 -1.570796 4.712390 
-0.334872 -0.226721 0.550603 1.110721 -2.681531 3.926991 
-0.340642 -0.218421 0.550603 0.000000 3.141592 3.141593 
-0.341692 -0.218421 0.550603 -1.570789 1.570773 1.570796 
-0.341692 -0.222921 0.550603 -1.570796 -1.570796 1.570796 
-0.328692 -0.231421 0.550603 1.570796 -1.570796 1.570796 
-0.333192 -0.231421 0.550603 -1.570773 -1.570789 1.570796 
-0.336992 -0.252241 0.550603 -2.681535 -1.110715 3.926987 
-0.336992 -0.253921 0.550603 -1.570796 1.570796 4.712389 
-0.334872 -0.250121 0.550603 1.110717 2.681520 3.926986 
-0.340642 -0.253921 0.550603 0.000000 3.141596 3.141593 
-0.328692 -0.258421 0.550603 1.570796 -1.570795 1.570794 
-0.328692 -0.245421 0.550603 1.570796 1.570789 1.570795 
-0.340642 -0.258421 0.550603 0.000000 -3.141570 3.141593 
-0.340124 -0.244869 0.550603 2.471076 1.896107 3.403406 
-0.333192 -0.245421 0.550603 -1.570789 1.570796 1.570796 
-0.333192 -0.250121 0.550603 -1.570796 1.570810 4.712389 
-0.341692 -0.253921 0.550603 -1.570789 1.570773 1.570796 
-0.341692 -0.258421 0.550603 -1.570796 -1.570796 1.570796 
-1.085492 0.063654 -0.009147 -2.617995 3.034546 0.000000 
-1.101492 0.063654 -0.009147 -3.665192 3.034546 -0.000000 
-1.085492 0.064190 -0.007147 -2.617995 2.627995 -1.517272 
-1.101492 0.064190 -0.007147 -3.665191 2.627995 -1.517271 
-1.085492 0.065654 -0.005683 -2.617993 1.517273 -2.627993 
-1.101492 0.065654 -0.005683 -3.665193 1.517273 -2.627993 
-1.085492 0.067654 -0.005147 -2.617994 -0.000001 -3.034546 
-1.101492 0.067654 -0.005147 -3.665192 -0.000001 -3.034545 
-1.085492 0.069654 -0.005683 -2.617996 -1.517272 -2.627995 
-1.101492 0.069654 -0.005683 -3.665189 -1.517272 -2.627995 
-1.085492 0.071118 -0.007147 -2.617993 -2.627992 -1.517274 
-1.101492 0.071118 -0.007147 -3.665193 -2.627992 -1.517274 
-1.085492 0.071654 -0.009147 -2.617995 -3.034546 -0.000000 
-1.101492 0.071654 -0.009147 -3.665191 -3.034546 0.000000 
-1.085492 0.065904 -0.006116 -3.665191 1.517272 -2.627993 
-1.085492 0.067654 -0.005647 -3.665192 0.000000 -3.034544 
-1.085492 0.069404 -0.006116 -3.665191 -1.517271 -2.627993 
-1.085492 0.070685 -0.007397 -3.665193 -2.627992 -1.517272 
-1.085492 0.071154 -0.009147 -3.665190 -3.034545 -0.000001 
-1.085492 0.070685 -0.010897 -3.665193 -2.627992 1.517271 
-1.085492 0.071118 -0.011147 -2.617992 -2.627992 1.517274 
-1.085492 0.069404 -0.012178 -3.665191 -1.517272 2.627993 
-1.085492 0.069654 -0.012611 -2.617996 -1.517272 2.627995 
-1.085492 0.067654 -0.012647 -3.665192 -0.000000 3.034544 
-1.085492 0.067654 -0.013147 -2.617994 -0.000001 3.034545 
-1.085492 0.065904 -0.012178 -3.665190 1.517271 2.627993 
-1.085492 0.065654 -0.012611 -2.617992 1.517273 2.627993 
-1.085492 0.064623 -0.010897 -3.665193 2.627991 1.517272 
-1.085492 0.064190 -0.011147 -2.617995 2.627995 1.517271 
-1.085492 0.064154 -0.009147 -3.665190 3.034544 0.000000 
-1.085492 0.064623 -0.007397 -3.665193 2.627992 -1.517271 
-0.384692 0.071654 -0.009147 2.617995 -3.034546 -0.000000 
-0.368692 0.071654 -0.009147 3.665191 -3.034546 -0.000000 
-0.384692 0.071118 -0.007147 2.617992 -2.627992 -1.517274 
-0.368692 0.071118 -0.007147 3.665193 -2.627992 -1.517274 
-0.384692 0.069654 -0.005683 2.617996 -1.517272 -2.627995 
-0.368692 0.069654 -0.005683 3.665189 -1.517272 -2.627995 
-0.384692 0.067654 -0.005147 2.617994 -0.000001 -3.034545 
-0.368692 0.067654 -0.005147 3.665191 -0.000001 -3.034546 
-0.384692 0.065654 -0.005683 2.617992 1.517273 -2.627993 
-0.368692 0.065654 -0.005683 3.665193 1.517273 -2.627993 
-0.384692 0.064190 -0.007147 2.617996 2.627995 -1.517271 
-0.368692 0.064190 -0.007147 3.665191 2.627995 -1.517272 
-0.384692 0.063654 -0.009147 2.617995 3.034546 -0.000000 
-0.368692 0.063654 -0.009147 3.665191 3.034546 0.000000 
-0.384692 0.064154 -0.009147 3.665190 3.034544 -0.000001 
-0.384692 0.064623 -0.010897 3.665193 2.627992 1.517271 
-0.384692 0.064190 -0.011147 2.617995 2.627995 1.517271 
-0.384692 0.065904 -0.012178 3.665191 1.517272 2.627993 
-0.384692 0.065654 -0.012611 2.617993 1.517273 2.627993 
-0.384692 0.067654 -0.012647 3.665192 0.000000 3.034544 
-0.384692 0.067654 -0.013147 2.617993 -0.000001 3.034545 
-0.384692 0.069404 -0.012178 3.665190 -1.517271 2.627993 
-0.384692 0.069654 -0.012611 2.617996 -1.517272 2.627995 
-0.384692 0.070685 -0.010897 3.665193 -2.627991 1.517272 
-0.384692 0.071118 -0.011147 2.617993 -2.627992 1.517274 
-0.384692 0.071154 -0.009147 3.665190 -3.034544 0.000000 
-0.384692 0.070685 -0.007397 3.665193 -2.627992 -1.517271 
-0.384692 0.069404 -0.006116 3.665191 -1.517272 -2.627993 
-0.384692 0.067654 -0.005647 3.665192 -0.000000 -3.034544 
-0.384692 0.065904 -0.006116 3.665191 1.517271 -2.627993 
-0.384692 0.064623 -0.007397 3.665193 2.627992 -1.517272 
-1.101492 0.079754 0.007953 -3.926992 2.681528 1.110734 
-1.101492 0.079754 0.008603 -3.337955 3.111041 -0.306388 
-0.368692 0.079754 0.007953 3.926992 2.681542 1.110722 
-0.368692 0.079754 0.008603 3.337955 3.111406 -0.306466 
-1.101492 0.081404 0.006303 -2.356193 2.681511 1.110722 
-0.368692 0.081404 0.006303 2.356193 2.681528 1.110734 
-1.101492 0.081404 0.005353 -3.337929 3.111414 0.306427 
-0.368692 0.081404 0.005353 3.337929 3.111018 0.306349 
-1.101492 0.081461 0.005066 -3.534304 2.846297 1.179036 
-0.368692 0.081461 0.005066 3.534304 2.846356 1.178892 
-1.101492 0.081623 0.004822 -3.534298 2.178419 2.178539 
-0.368692 0.081623 0.004822 3.534298 2.178529 2.178429 
-1.101492 0.081867 0.004660 -3.534286 1.178906 2.846356 
-0.368692 0.081867 0.004660 3.534286 1.179050 2.846296 
-1.101492 0.082154 0.004603 -3.337942 0.306369 3.111014 
-0.368692 0.082154 0.004603 3.337942 0.306447 3.111410 
-1.101492 0.083104 0.004603 -2.356194 1.110734 2.681529 
-0.368692 0.083104 0.004603 2.356194 1.110721 2.681512 
-1.101492 0.084754 0.002953 -3.926991 1.110721 2.681543 
-0.368692 0.084754 0.002953 3.926992 1.110734 2.681529 
-1.101492 0.085404 0.002953 -3.337942 -0.306447 3.111410 
-0.368692 0.085404 0.002953 3.337942 -0.306369 3.111045 
-1.101492 0.085691 0.003010 -3.534301 -1.179068 2.846284 
-0.368692 0.085691 0.003010 3.534301 -1.178924 2.846344 
-1.101492 0.085934 0.003172 -3.534284 -2.178548 2.178416 
-0.368692 0.085934 0.003172 3.534284 -2.178438 2.178526 
-1.101492 0.086097 0.003416 -3.534279 -2.846349 1.178930 
-0.368692 0.086097 0.003416 3.534279 -2.846289 1.179074 
-1.101492 0.086154 0.003703 -3.337954 -3.111008 0.306387 
-0.368692 0.086154 0.003703 3.337954 -3.111407 0.306465 
-1.101492 0.086154 0.008353 -3.403396 -3.088068 -0.406558 
-0.368692 0.086154 0.008353 3.403396 -3.088045 -0.406554 
-1.101492 0.086020 0.008853 -3.665185 -2.627980 -1.517272 
-0.368692 0.086020 0.008853 3.665185 -2.627984 -1.517264 
-1.101492 0.085654 0.009219 -3.665195 -1.517263 -2.627980 
-0.368692 0.085654 0.009219 3.665195 -1.517270 -2.627976 
-1.101492 0.085154 0.009353 -3.403391 -0.406547 -3.088047 
-0.368692 0.085154 0.009353 3.403391 -0.406551 -3.088069 
-1.101492 0.080504 0.009353 -3.337942 0.306447 -3.111410 
-0.368692 0.080504 0.009353 3.337942 0.306369 -3.111012 
-1.101492 0.080217 0.009296 -3.534289 1.179053 -2.846294 
-0.368692 0.080217 0.009296 3.534289 1.178909 -2.846354 
-1.101492 0.079973 0.009133 -3.534295 2.178533 -2.178426 
-0.368692 0.079973 0.009133 3.534295 2.178422 -2.178536 
-1.101492 0.079811 0.008890 -3.534278 2.846348 -1.178931 
-0.368692 0.079811 0.008890 3.534278 2.846289 -1.179075 
-1.101492 0.079754 -0.026897 -3.337955 3.111406 0.306466 
-0.368692 0.079754 -0.026897 3.337954 3.111041 0.306388 
-1.101492 0.079811 -0.027184 -3.534278 2.846289 1.179075 
-0.368692 0.079811 -0.027184 3.534278 2.846348 1.178931 
-1.101492 0.079973 -0.027428 -3.534295 2.178422 2.178536 
-0.368692 0.079973 -0.027428 3.534295 2.178533 2.178426 
-1.101492 0.080217 -0.027590 -3.534289 1.178909 2.846354 
-0.368692 0.080217 -0.027590 3.534289 1.179053 2.846294 
-1.101492 0.080504 -0.027647 -3.337942 0.306369 3.111012 
-0.368692 0.080504 -0.027647 3.337942 0.306447 3.111410 
-1.101492 0.085154 -0.027647 -3.403391 -0.406551 3.088069 
-0.368692 0.085154 -0.027647 3.403391 -0.406547 3.088047 
-1.101492 0.085654 -0.027513 -3.665195 -1.517270 2.627976 
-0.368692 0.085654 -0.027513 3.665195 -1.517263 2.627980 
-1.101492 0.086020 -0.027147 -3.665185 -2.627984 1.517264 
-0.368692 0.086020 -0.027147 3.665185 -2.627980 1.517272 
-1.101492 0.086154 -0.026647 -3.403396 -3.088045 0.406554 
-0.368692 0.086154 -0.026647 3.403396 -3.088068 0.406558 
-1.101492 0.086154 -0.021997 -3.337955 -3.111406 -0.306466 
-0.368692 0.086154 -0.021997 3.337955 -3.111007 -0.306388 
-1.101492 0.086097 -0.021710 -3.534279 -2.846289 -1.179075 
-0.368692 0.086097 -0.021710 3.534279 -2.846348 -1.178931 
-1.101492 0.085934 -0.021467 -3.534281 -2.178441 -2.178524 
-0.368692 0.085934 -0.021467 3.534281 -2.178551 -2.178414 
-1.101492 0.085691 -0.021304 -3.534303 -1.178928 -2.846342 
-0.368692 0.085691 -0.021304 3.534303 -1.179072 -2.846282 
-1.101492 0.085404 -0.021247 -3.337942 -0.306369 -3.111045 
-0.368692 0.085404 -0.021247 3.337942 -0.306447 -3.111410 
-1.101492 0.084754 -0.021247 -3.926993 1.110734 -2.681529 
-0.368692 0.084754 -0.021247 3.926991 1.110721 -2.681543 
-1.101492 0.083104 -0.022897 -2.356194 1.110721 -2.681512 
-0.368692 0.083104 -0.022897 2.356194 1.110734 -2.681529 
-1.101492 0.082154 -0.022897 -3.337942 0.306447 -3.111410 
-0.368692 0.082154 -0.022897 3.337942 0.306369 -3.111014 
-1.101492 0.081867 -0.022954 -3.534289 1.179053 -2.846294 
-0.368692 0.081867 -0.022954 3.534289 1.178909 -2.846354 
-1.101492 0.081623 -0.023117 -3.534296 2.178533 -2.178426 
-0.368692 0.081623 -0.023117 3.534295 2.178422 -2.178536 
-1.101492 0.081461 -0.023360 -3.534303 2.846356 -1.178892 
-0.368692 0.081461 -0.023360 3.534303 2.846297 -1.179036 
-1.101492 0.081404 -0.023647 -3.337929 3.111018 -0.306350 
-0.368692 0.081404 -0.023647 3.337929 3.111414 -0.306428 
-1.101492 0.081404 -0.024597 -2.356193 2.681528 -1.110735 
-0.368692 0.081404 -0.024597 2.356193 2.681511 -1.110723 
-1.101492 0.079754 -0.026247 -3.926992 2.681542 -1.110723 
-0.368692 0.079754 -0.026247 3.926992 2.681528 -1.110735 
-1.101492 0.054804 -0.027647 -3.337940 -0.306443 3.111411 
-1.101492 0.050154 -0.027647 -3.403393 0.406550 3.088046 
-0.368692 0.054804 -0.027647 3.337940 -0.306365 3.111012 
-0.368692 0.050154 -0.027647 3.403393 0.406554 3.088069 
-1.101492 0.055091 -0.027590 -3.534299 -1.179059 2.846289 
-0.368692 0.055091 -0.027590 3.534299 -1.178915 2.846348 
-1.101492 0.055334 -0.027428 -3.534288 -2.178542 2.178420 
-0.368692 0.055334 -0.027428 3.534288 -2.178432 2.178530 
-1.101492 0.055497 -0.027184 -3.534291 -2.846352 1.178912 
-0.368692 0.055497 -0.027184 3.534291 -2.846292 1.179056 
-1.101492 0.055554 -0.026897 -3.337942 -3.111045 0.306369 
-0.368692 0.055554 -0.026897 3.337942 -3.111410 0.306447 
-1.101492 0.055554 -0.026247 -3.926991 -2.681529 -1.110734 
-0.368692 0.055554 -0.026247 3.926991 -2.681543 -1.110721 
-1.101492 0.053904 -0.024597 -2.356194 -2.681512 -1.110721 
-0.368692 0.053904 -0.024597 2.356194 -2.681529 -1.110734 
-1.101492 0.053904 -0.023647 -3.337942 -3.111410 -0.306447 
-0.368692 0.053904 -0.023647 3.337942 -3.111014 -0.306369 
-1.101492 0.053847 -0.023360 -3.534291 -2.846292 -1.179056 
-0.368692 0.053847 -0.023360 3.534291 -2.846352 -1.178912 
-1.101492 0.053684 -0.023117 -3.534288 -2.178432 -2.178530 
-0.368692 0.053684 -0.023117 3.534288 -2.178542 -2.178420 
-1.101492 0.053441 -0.022954 -3.534296 -1.178919 -2.846348 
-0.368692 0.053441 -0.022954 3.534296 -1.179063 -2.846288 
-1.101492 0.053154 -0.022897 -3.337942 -0.306369 -3.111014 
-0.368692 0.053154 -0.022897 3.337942 -0.306447 -3.111410 
-1.101492 0.052204 -0.022897 -2.356195 -1.110733 -2.681530 
-0.368692 0.052204 -0.022897 2.356195 -1.110720 -2.681513 
-1.101492 0.050554 -0.021247 -3.926990 -1.110720 -2.681544 
-0.368692 0.050554 -0.021247 3.926987 -1.110733 -2.681530 
-1.101492 0.049904 -0.021247 -3.337942 0.306447 -3.111410 
-0.368692 0.049904 -0.021247 3.337942 0.306369 -3.111045 
-1.101492 0.049617 -0.021304 -3.534296 1.179063 -2.846288 
-0.368692 0.049617 -0.021304 3.534296 1.178919 -2.846348 
-1.101492 0.049373 -0.021467 -3.534288 2.178542 -2.178420 
-0.368692 0.049373 -0.021467 3.534288 2.178432 -2.178530 
-1.101492 0.049211 -0.021710 -3.534291 2.846352 -1.178912 
-0.368692 0.049211 -0.021710 3.534291 2.846292 -1.179056 
-1.101492 0.049154 -0.021997 -3.337942 3.111012 -0.306369 
-0.368692 0.049154 -0.021997 3.337942 3.111410 -0.306447 
-1.101492 0.049154 -0.026647 -3.403389 3.088070 0.406547 
-0.368692 0.049154 -0.026647 3.403389 3.088048 0.406543 
-1.101492 0.049288 -0.027147 -3.665197 2.627977 1.517267 
-0.368692 0.049288 -0.027147 3.665197 2.627981 1.517259 
-1.101492 0.049654 -0.027513 -3.665188 1.517260 2.627985 
-0.368692 0.049654 -0.027513 3.665188 1.517267 2.627981 
-1.101492 0.049154 0.003703 -3.337942 3.111411 0.306446 
-1.101492 0.049154 0.008353 -3.403389 3.088048 -0.406543 
-0.368692 0.049154 0.003703 3.337942 3.111012 0.306368 
-0.368692 0.049154 0.008353 3.403389 3.088070 -0.406547 
-1.101492 0.049211 0.003416 -3.534291 2.846293 1.179055 
-0.368692 0.049211 0.003416 3.534291 2.846353 1.178911 
-1.101492 0.049373 0.003172 -3.534291 2.178428 2.178533 
-0.368692 0.049373 0.003172 3.534291 2.178538 2.178422 
-1.101492 0.049617 0.003010 -3.534294 1.178915 2.846350 
-0.368692 0.049617 0.003010 3.534294 1.179059 2.846290 
-1.101492 0.049904 0.002953 -3.337942 0.306369 3.111045 
-0.368692 0.049904 0.002953 3.337942 0.306447 3.111410 
-1.101492 0.050554 0.002953 -3.926991 -1.110732 2.681530 
-0.368692 0.050554 0.002953 3.926990 -1.110720 2.681544 
-1.101492 0.052204 0.004603 -2.356195 -1.110720 2.681513 
-0.368692 0.052204 0.004603 2.356195 -1.110732 2.681530 
-1.101492 0.053154 0.004603 -3.337942 -0.306447 3.111410 
-0.368692 0.053154 0.004603 3.337942 -0.306369 3.111014 
-1.101492 0.053441 0.004660 -3.534293 -1.179059 2.846290 
-0.368692 0.053441 0.004660 3.534293 -1.178915 2.846350 
-1.101492 0.053684 0.004822 -3.534291 -2.178538 2.178422 
-0.368692 0.053684 0.004822 3.534291 -2.178428 2.178533 
-1.101492 0.053847 0.005066 -3.534292 -2.846353 1.178911 
-0.368692 0.053847 0.005066 3.534292 -2.846293 1.179055 
-1.101492 0.053904 0.005353 -3.337941 -3.111014 0.306368 
-0.368692 0.053904 0.005353 3.337941 -3.111411 0.306446 
-1.101492 0.053904 0.006303 -2.356194 -2.681529 1.110733 
-0.368692 0.053904 0.006303 2.356194 -2.681512 1.110721 
-1.101492 0.055554 0.007953 -3.926991 -2.681543 1.110721 
-0.368692 0.055554 0.007953 3.926992 -2.681529 1.110733 
-1.101492 0.055554 0.008603 -3.337942 -3.111410 -0.306447 
-0.368692 0.055554 0.008603 3.337942 -3.111045 -0.306369 
-1.101492 0.055497 0.008890 -3.534291 -2.846292 -1.179056 
-0.368692 0.055497 0.008890 3.534291 -2.846352 -1.178912 
-1.101492 0.055334 0.009133 -3.534288 -2.178432 -2.178530 
-0.368692 0.055334 0.009133 3.534288 -2.178542 -2.178420 
-1.101492 0.055091 0.009296 -3.534299 -1.178915 -2.846348 
-0.368692 0.055091 0.009296 3.534299 -1.179059 -2.846289 
-1.101492 0.054804 0.009353 -3.337940 -0.306365 -3.111012 
-0.368692 0.054804 0.009353 3.337940 -0.306443 -3.111411 
-1.101492 0.050154 0.009353 -3.403393 0.406554 -3.088069 
-0.368692 0.050154 0.009353 3.403393 0.406550 -3.088046 
-1.101492 0.049654 0.009219 -3.665188 1.517267 -2.627981 
-0.368692 0.049654 0.009219 3.665188 1.517260 -2.627985 
-1.101492 0.049288 0.008853 -3.665197 2.627981 -1.517259 
-0.368692 0.049288 0.008853 3.665197 2.627977 -1.517267 
-0.368692 0.075704 -0.024647 3.141593 0.000000 3.141603 
-0.368692 0.074654 -0.024647 1.570796 -1.570803 1.570745 
-0.368692 0.074654 -0.029147 1.570796 -1.570796 -1.570796 
-0.368692 0.047654 0.010853 1.570797 -1.570795 1.570796 
-0.368692 0.060654 0.010853 1.570800 1.570796 1.570795 
-0.368692 0.047654 -0.002147 1.570802 -1.570796 -1.570803 
-0.368692 0.061206 -0.000579 3.403392 1.896121 2.471071 
-0.368692 0.055954 0.004673 3.926991 2.681515 1.110721 
-0.368692 0.053834 0.002553 3.926990 -1.110722 -2.681519 
-0.368692 0.055954 0.006353 4.712389 1.570796 -1.570796 
-0.368692 0.060654 0.006353 1.570796 1.570803 -1.570796 
-0.368692 0.052154 -0.002147 1.570796 1.570796 -1.570796 
-0.368692 0.052154 0.002553 4.712389 1.570796 -1.570794 
-0.368692 0.069654 -0.015147 3.665192 -0.785400 -2.931150 
-0.368692 0.071118 -0.011147 3.665193 -2.627992 1.517274 
-0.368692 0.069654 -0.012611 3.665189 -1.517272 2.627995 
-0.368692 0.065654 -0.003147 3.665192 0.785398 2.931145 
-0.368692 0.069654 -0.003147 3.665191 -0.785398 2.931147 
-0.368692 0.061654 -0.007147 3.665191 -2.931147 -0.785398 
-0.368692 0.065654 -0.015147 3.665192 0.785401 -2.931150 
-0.368692 0.067654 -0.013147 3.665192 -0.000001 3.034545 
-0.368692 0.065654 -0.012611 3.665193 1.517273 2.627993 
-0.368692 0.073654 -0.007147 3.665193 2.931145 -0.785400 
-0.368692 0.073654 -0.011147 3.665193 2.931146 0.785400 
-0.368692 0.075704 -0.014698 3.141592 2.720712 1.570806 
-0.368692 0.075704 -0.017197 6.283185 0.000000 0.000000 
-0.368692 0.059086 -0.002699 3.403393 -2.471070 -1.896118 
-0.368692 0.064190 -0.011147 3.665191 2.627995 1.517271 
-0.368692 0.061654 -0.011147 3.665191 -2.931146 0.785397 
-0.368692 0.062103 -0.017197 3.141593 1.570824 -2.720742 
-0.368692 0.087654 0.010853 1.570798 1.570796 1.570796 
-0.368692 0.087654 -0.002147 1.570800 1.570795 -1.570796 
-0.368692 0.075704 0.010853 3.141589 0.000000 3.141595 
-0.368692 0.079354 0.006353 4.712389 -1.570794 -1.570807 
-0.368692 0.079354 0.004673 3.926990 -2.681518 1.110720 
-0.368692 0.074102 -0.000579 3.403391 -1.896101 2.471055 
-0.368692 0.075704 -0.003597 3.141592 2.720702 -1.570800 
-0.368692 0.075704 0.001023 3.141594 -2.221440 2.221440 
-0.368692 0.076222 -0.002699 3.403392 2.471116 -1.896146 
-0.368692 0.081474 0.002553 3.926991 1.110721 -2.681515 
-0.368692 0.083154 0.002553 4.712389 -1.570796 -1.570796 
-0.368692 0.083154 -0.002147 1.570796 -1.570796 -1.570803 
-0.368692 0.074654 0.010853 1.570796 -1.570803 1.570745 
-0.368692 0.074654 0.006353 1.570796 -1.570796 -1.570796 
-0.368692 0.075704 0.006353 3.141593 0.000000 -3.141541 
-0.368692 0.087654 -0.029147 1.570798 1.570796 -1.570799 
-0.368692 0.087654 -0.017197 3.141589 3.141595 0.000000 
-0.368692 0.074102 -0.017715 3.403391 -1.896143 -2.471116 
-0.368692 0.075704 -0.019317 3.141595 -2.221438 -2.221439 
-0.368692 0.079354 -0.022967 3.926990 -2.681516 -1.110720 
-0.368692 0.075704 -0.029147 3.141590 0.000000 -3.141541 
-0.368692 0.081474 -0.020847 3.926991 1.110720 2.681516 
-0.368692 0.083154 -0.020847 4.712389 -1.570807 1.570794 
-0.368692 0.083154 -0.017197 3.141593 -3.141541 0.000000 
-0.368692 0.087654 -0.016147 1.570797 1.570745 1.570803 
-0.368692 0.083154 -0.016147 1.570796 -1.570796 1.570796 
-0.368692 0.079354 -0.024647 4.712388 -1.570796 1.570796 
-0.368692 0.076222 -0.015595 3.403392 2.471055 1.896103 
-0.368692 0.060654 -0.024647 1.570796 1.570796 1.570796 
-0.368692 0.055954 -0.024647 4.712389 1.570794 1.570796 
-0.368692 0.047654 -0.029147 1.570797 -1.570799 -1.570795 
-0.368692 0.060654 -0.029147 1.570800 1.570803 -1.570796 
-0.368692 0.059086 -0.015595 3.403393 -2.471070 1.896119 
-0.368692 0.057484 -0.017197 3.141591 -2.221425 2.221426 
-0.368692 0.061206 -0.017715 3.403391 1.896120 -2.471070 
-0.368692 0.055954 -0.022967 3.926991 2.681518 -1.110722 
-0.368692 0.047654 -0.017197 3.141591 -3.141541 0.000000 
-0.368692 0.053834 -0.020847 3.926991 -1.110720 2.681513 
-0.368692 0.052154 -0.020847 4.712388 1.570796 1.570796 
-0.368692 0.052154 -0.017197 3.141593 3.141603 0.000000 
-0.368692 0.052154 -0.016147 1.570796 1.570745 1.570803 
-0.368692 0.047654 -0.016147 1.570796 -1.570796 1.570796 
-1.101492 0.060654 0.006353 -1.570796 1.570796 -1.570796 
-1.101492 0.055954 0.006353 -4.712389 1.570794 -1.570796 
-1.101492 0.047654 0.010853 -1.570797 -1.570796 1.570795 
-1.101492 0.061654 -0.007147 -3.665191 -2.931146 -0.785397 
-1.101492 0.059086 -0.002699 -3.403394 -2.471072 -1.896120 
-1.101492 0.060654 0.010853 -1.570800 1.570803 1.570796 
-1.101492 0.047654 -0.002147 -1.570802 -1.570795 -1.570796 
-1.101492 0.074102 -0.000579 -3.403391 -1.896117 2.471071 
-1.101492 0.075704 0.001023 -3.141594 -2.221425 2.221426 
-1.101492 0.075704 -0.003597 -3.141592 2.720742 -1.570824 
-1.101492 0.052154 0.002553 -4.712389 1.570796 -1.570796 
-1.101492 0.052154 -0.002147 -1.570796 1.570796 -1.570803 
-1.101492 0.053834 0.002553 -3.926991 -1.110721 -2.681515 
-1.101492 0.055954 0.004673 -3.926991 2.681518 1.110722 
-1.101492 0.061206 -0.000579 -3.403392 1.896119 2.471069 
-1.101492 0.065654 -0.003147 -3.665192 0.785399 2.931146 
-1.101492 0.073654 -0.011147 -3.665192 2.931149 0.785402 
-1.101492 0.071118 -0.011147 -3.665194 -2.627992 1.517274 
-1.101492 0.073654 -0.007147 -3.665193 2.931149 -0.785402 
-1.101492 0.069654 -0.003147 -3.665191 -0.785397 2.931146 
-1.101492 0.061654 -0.011147 -3.665191 -2.931147 0.785398 
-1.101492 0.064190 -0.011147 -3.665191 2.627995 1.517272 
-1.101492 0.059086 -0.015595 -3.403393 -2.471053 1.896103 
-1.101492 0.076222 -0.015595 -3.403390 2.471115 1.896144 
-1.101492 0.075704 -0.017197 -6.283185 0.000000 0.000000 
-1.101492 0.062103 -0.017197 -3.141593 1.570801 -2.720702 
-1.101492 0.065654 -0.012611 -3.665193 1.517273 2.627992 
-1.101492 0.065654 -0.015147 -3.665192 0.785399 -2.931146 
-1.101492 0.067654 -0.013147 -3.665192 -0.000001 3.034546 
-1.101492 0.069654 -0.015147 -3.665191 -0.785398 -2.931147 
-1.101492 0.069654 -0.012611 -3.665189 -1.517272 2.627995 
-1.101492 0.073204 -0.017197 -3.141594 -1.570805 -2.720712 
-1.101492 0.047654 -0.029147 -1.570797 -1.570796 -1.570796 
-1.101492 0.047654 -0.017197 -3.141590 -3.141595 0.000000 
-1.101492 0.060654 -0.029147 -1.570799 1.570796 -1.570795 
-1.101492 0.052154 -0.020847 -4.712389 1.570807 1.570794 
-1.101492 0.053834 -0.020847 -3.926989 -1.110721 2.681517 
-1.101492 0.057484 -0.017197 -3.141591 -2.221439 2.221441 
-1.101492 0.061206 -0.017715 -3.403391 1.896147 -2.471115 
-1.101492 0.055954 -0.022967 -3.926991 2.681515 -1.110721 
-1.101492 0.055954 -0.024647 -4.712388 1.570796 1.570796 
-1.101492 0.060654 -0.024647 -1.570796 1.570803 1.570796 
-1.101492 0.047654 -0.016147 -1.570796 -1.570745 1.570803 
-1.101492 0.052154 -0.016147 -1.570796 1.570796 1.570796 
-1.101492 0.052154 -0.017197 -3.141593 3.141541 0.000000 
-1.101492 0.075704 -0.024647 -3.141593 0.000000 3.141541 
-1.101492 0.079354 -0.024647 -4.712389 -1.570794 1.570807 
-1.101492 0.087654 -0.029147 -1.570798 1.570799 -1.570796 
-1.101492 0.083154 -0.017197 -3.141593 -3.141603 0.000000 
-1.101492 0.083154 -0.020847 -4.712388 -1.570796 1.570796 
-1.101492 0.081474 -0.020847 -3.926991 1.110721 2.681515 
-1.101492 0.075704 -0.029147 -3.141589 0.000000 -3.141595 
-1.101492 0.087654 -0.017197 -3.141590 3.141541 0.000000 
-1.101492 0.079354 -0.022967 -3.926991 -2.681516 -1.110719 
-1.101492 0.074102 -0.017715 -3.403391 -1.896104 -2.471053 
-1.101492 0.077824 -0.017197 -3.141594 2.221440 2.221437 
-1.101492 0.074654 -0.029147 -1.570796 -1.570803 -1.570745 
-1.101492 0.074654 -0.024647 -1.570796 -1.570796 1.570796 
-1.101492 0.087654 -0.016147 -1.570797 1.570796 1.570796 
-1.101492 0.083154 -0.016147 -1.570796 -1.570745 1.570803 
-1.101492 0.079354 0.004673 -3.926990 -2.681514 1.110719 
-1.101492 0.079354 0.006353 -4.712389 -1.570796 -1.570796 
-1.101492 0.081474 0.002553 -3.926993 1.110722 -2.681518 
-1.101492 0.075704 0.010853 -3.141590 0.000000 3.141541 
-1.101492 0.075704 0.006353 -3.141592 0.000000 -3.141603 
-1.101492 0.087654 -0.002147 -1.570799 1.570796 -1.570803 
-1.101492 0.087654 0.010853 -1.570798 1.570795 1.570799 
-1.101492 0.076222 -0.002699 -3.403392 2.471070 -1.896119 
-1.101492 0.083154 -0.002147 -1.570796 -1.570796 -1.570796 
-1.101492 0.083154 0.002553 -4.712389 -1.570796 -1.570794 
-1.101492 0.074654 0.006353 -1.570796 -1.570803 -1.570745 
-1.101492 0.074654 0.010853 -1.570796 -1.570796 1.570796 
-0.182642 0.099973 0.590603 1.570797 1.570796 1.570796 
-0.182642 0.099973 0.522404 1.570796 1.570796 -1.570796 
-0.282667 0.099973 0.590603 -1.570796 1.570796 1.570796 
-0.282667 0.099973 0.522404 -1.570797 1.570796 -1.570796 
-0.182642 0.087654 0.522404 1.570797 -1.570796 -1.570796 
-0.182642 0.087654 0.590603 3.141592 -0.000000 3.141593 
-0.282667 0.087654 0.522404 -1.570796 -1.570796 -1.570796 
-0.282667 0.087654 0.590603 -1.570797 -1.570796 1.570796 
-0.182642 -0.258421 0.522404 1.570796 1.570796 -1.570796 
-0.282667 -0.258421 0.590603 -1.570796 1.570796 1.570796 
-0.282667 -0.258421 0.522404 -1.570796 1.570796 -1.570796 
-0.182642 -0.270740 0.522404 1.570796 -1.570796 -1.570796 
-0.182642 -0.270740 0.590603 1.570796 -1.570796 1.570796 
-0.282667 -0.270740 0.522404 -1.570796 -1.570796 -1.570796 
-0.282667 -0.270740 0.590603 -1.570796 -1.570796 1.570796 
-0.352692 0.031654 0.469003 3.034542 2.617985 -0.000006 
-0.352692 0.047654 0.469003 3.034542 3.665201 -0.000006 
-0.352156 0.031654 0.471003 2.627991 2.618000 -1.517283 
-0.352156 0.047654 0.471003 2.627991 3.665185 -1.517282 
-0.350692 0.031654 0.472467 1.517277 2.617997 -2.627992 
-0.350692 0.047654 0.472467 1.517277 3.665189 -2.627992 
-0.348692 0.031654 0.473003 -0.000006 2.617985 -3.034542 
-0.348692 0.047654 0.473003 -0.000006 3.665200 -3.034542 
-0.346692 0.031654 0.472467 -1.517271 2.618011 -2.628003 
-0.346692 0.047654 0.472467 -1.517271 3.665175 -2.628002 
-0.345228 0.031654 0.471003 -2.627985 2.617976 -1.517273 
-0.345228 0.047654 0.471003 -2.627985 3.665209 -1.517273 
-0.344692 0.031654 0.469003 -3.034553 2.618012 -0.000006 
-0.344692 0.047654 0.469003 -3.034553 3.665173 -0.000006 
-0.350442 0.031654 0.472034 1.517266 3.665195 -2.627991 
-0.348692 0.031654 0.472503 -0.000005 3.665188 -3.034544 
-0.346942 0.031654 0.472034 -1.517276 3.665191 -2.627996 
-0.345661 0.031654 0.470753 -2.627990 3.665191 -1.517272 
-0.345192 0.031654 0.469003 -3.034543 3.665188 -0.000008 
-0.345661 0.031654 0.467253 -2.627998 3.665195 1.517270 
-0.345228 0.031654 0.467003 -2.627987 2.617972 1.517267 
-0.346942 0.031654 0.465972 -1.517272 3.665191 2.627990 
-0.346692 0.031654 0.465539 -1.517271 2.618011 2.628002 
-0.348692 0.031654 0.465503 -0.000008 3.665188 3.034543 
-0.348692 0.031654 0.465003 -0.000006 2.617984 3.034542 
-0.350442 0.031654 0.465972 1.517270 3.665195 2.627998 
-0.350692 0.031654 0.465539 1.517277 2.617996 2.627992 
-0.351723 0.031654 0.467253 2.627991 3.665195 1.517266 
-0.352156 0.031654 0.467003 2.627992 2.617997 1.517277 
-0.352192 0.031654 0.469003 3.034544 3.665188 -0.000005 
-0.351723 0.031654 0.470753 2.627996 3.665191 -1.517276 
-0.344692 -0.202421 0.469003 -3.034554 -2.618012 -0.000006 
-0.344692 -0.218421 0.469003 -3.034553 -3.665173 -0.000006 
-0.345228 -0.202421 0.471003 -2.627985 -2.617976 -1.517273 
-0.345228 -0.218421 0.471003 -2.627985 -3.665209 -1.517273 
-0.346692 -0.202421 0.472467 -1.517271 -2.618011 -2.628002 
-0.346692 -0.218421 0.472467 -1.517271 -3.665175 -2.628003 
-0.348692 -0.202421 0.473003 -0.000006 -2.617984 -3.034542 
-0.348692 -0.218421 0.473003 -0.000006 -3.665201 -3.034542 
-0.350692 -0.202421 0.472467 1.517277 -2.617996 -2.627992 
-0.350692 -0.218421 0.472467 1.517277 -3.665189 -2.627993 
-0.352156 -0.202421 0.471003 2.627991 -2.618001 -1.517283 
-0.352156 -0.218421 0.471003 2.627991 -3.665185 -1.517283 
-0.352692 -0.202421 0.469003 3.034542 -2.617984 -0.000006 
-0.352692 -0.218421 0.469003 3.034542 -3.665201 -0.000006 
-0.352192 -0.202421 0.469003 3.034543 -3.665188 -0.000008 
-0.351723 -0.202421 0.467253 2.627998 -3.665195 1.517270 
-0.352156 -0.202421 0.467003 2.627992 -2.617996 1.517277 
-0.350442 -0.202421 0.465972 1.517266 -3.665195 2.627991 
-0.350692 -0.202421 0.465539 1.517277 -2.617997 2.627993 
-0.348692 -0.202421 0.465503 -0.000005 -3.665188 3.034544 
-0.348692 -0.202421 0.465003 -0.000006 -2.617985 3.034542 
-0.346942 -0.202421 0.465972 -1.517276 -3.665191 2.627996 
-0.346692 -0.202421 0.465539 -1.517271 -2.618011 2.628003 
-0.345661 -0.202421 0.467253 -2.627991 -3.665195 1.517266 
-0.345228 -0.202421 0.467003 -2.627987 -2.617972 1.517267 
-0.345192 -0.202421 0.469003 -3.034544 -3.665188 -0.000005 
-0.345661 -0.202421 0.470753 -2.627996 -3.665191 -1.517276 
-0.346942 -0.202421 0.472034 -1.517272 -3.665191 -2.627990 
-0.348692 -0.202421 0.472503 -0.000008 -3.665188 -3.034543 
-0.350442 -0.202421 0.472034 1.517270 -3.665195 -2.627998 
-0.351723 -0.202421 0.470753 2.627990 -3.665191 -1.517272 
-0.336592 0.047654 0.486103 2.681516 3.926991 1.110720 
-0.336592 0.047654 0.486753 3.111356 3.337989 -0.306508 
-0.336592 -0.218421 0.486103 2.681540 -3.926990 1.110721 
-0.336592 -0.218421 0.486753 3.111396 -3.337990 -0.306520 
-0.334942 0.047654 0.484453 2.681518 2.356194 1.110721 
-0.334942 -0.218421 0.484453 2.681516 -2.356194 1.110720 
-0.334942 0.047654 0.483503 3.111402 3.337970 0.306489 
-0.334942 -0.218421 0.483503 3.111340 -3.337970 0.306477 
-0.334885 0.047654 0.483216 2.846613 3.534264 1.179164 
-0.334885 -0.218421 0.483216 2.846622 -3.534264 1.179141 
-0.334722 0.047654 0.482972 2.178704 3.534293 2.178721 
-0.334722 -0.218421 0.482972 2.178721 -3.534293 2.178704 
-0.334479 0.047654 0.482810 1.179141 3.534263 2.846622 
-0.334479 -0.218421 0.482810 1.179164 -3.534263 2.846613 
-0.334192 0.047654 0.482753 0.306477 3.337970 3.111340 
-0.334192 -0.218421 0.482753 0.306489 -3.337970 3.111402 
-0.333242 0.047654 0.482753 1.110730 2.356185 2.681506 
-0.333242 -0.218421 0.482753 1.110731 -2.356185 2.681508 
-0.331592 0.047654 0.481103 1.110731 3.927000 2.681530 
-0.331592 -0.218421 0.481103 1.110730 -3.927000 2.681506 
-0.330942 0.047654 0.481103 -0.306520 3.337989 3.111396 
-0.330942 -0.218421 0.481103 -0.306508 -3.337989 3.111356 
-0.330655 0.047654 0.481160 -1.179120 3.534187 2.846656 
-0.330655 -0.218421 0.481160 -1.179097 -3.534187 2.846666 
-0.330412 0.047654 0.481322 -2.178647 3.534350 2.178753 
-0.330412 -0.218421 0.481322 -2.178630 -3.534350 2.178771 
-0.330249 0.047654 0.481566 -2.846622 3.534263 1.179141 
-0.330249 -0.218421 0.481566 -2.846613 -3.534263 1.179164 
-0.330192 0.047654 0.481853 -3.111337 3.337970 0.306477 
-0.330192 -0.218421 0.481853 -3.111402 -3.337970 0.306489 
-0.330192 0.047654 0.486503 -3.088055 3.403426 -0.406604 
-0.330192 -0.218421 0.486503 -3.088061 -3.403426 -0.406606 
-0.330326 0.047654 0.487003 -2.627987 3.665157 -1.517327 
-0.330326 -0.218421 0.487003 -2.627985 -3.665157 -1.517330 
-0.330692 0.047654 0.487369 -1.517330 3.665157 -2.627985 
-0.330692 -0.218421 0.487369 -1.517327 -3.665157 -2.627987 
-0.331192 0.047654 0.487503 -0.406606 3.403426 -3.088061 
-0.331192 -0.218421 0.487503 -0.406604 -3.403426 -3.088055 
-0.335842 0.047654 0.487503 0.306520 3.337989 -3.111396 
-0.335842 -0.218421 0.487503 0.306508 -3.337989 -3.111331 
-0.336129 0.047654 0.487446 1.179120 3.534187 -2.846656 
-0.336129 -0.218421 0.487446 1.179097 -3.534187 -2.846666 
-0.336372 0.047654 0.487283 2.178697 3.534407 -2.178679 
-0.336372 -0.218421 0.487283 2.178679 -3.534407 -2.178697 
-0.336535 0.047654 0.487040 2.846666 3.534187 -1.179097 
-0.336535 -0.218421 0.487040 2.846656 -3.534187 -1.179120 
-0.336592 0.047654 0.451253 3.111396 3.337990 0.306520 
-0.336592 -0.218421 0.451253 3.111356 -3.337989 0.306508 
-0.336535 0.047654 0.450966 2.846656 3.534187 1.179120 
-0.336535 -0.218421 0.450966 2.846666 -3.534187 1.179097 
-0.336372 0.047654 0.450722 2.178679 3.534407 2.178697 
-0.336372 -0.218421 0.450722 2.178697 -3.534407 2.178679 
-0.336129 0.047654 0.450560 1.178943 3.534287 2.846696 
-0.336129 -0.218421 0.450560 1.178966 -3.534287 2.846687 
-0.335842 0.047654 0.450503 0.306354 3.337889 3.111362 
-0.335842 -0.218421 0.450503 0.306366 -3.337889 3.111426 
-0.331192 0.047654 0.450503 -0.406520 3.403371 3.088078 
-0.331192 -0.218421 0.450503 -0.406522 -3.403371 3.088084 
-0.330692 0.047654 0.450637 -1.517242 3.665213 2.628010 
-0.330692 -0.218421 0.450637 -1.517246 -3.665213 2.628007 
-0.330326 0.047654 0.451003 -2.627985 3.665157 1.517330 
-0.330326 -0.218421 0.451003 -2.627987 -3.665157 1.517327 
-0.330192 0.047654 0.451503 -3.088061 3.403426 0.406606 
-0.330192 -0.218421 0.451503 -3.088055 -3.403426 0.406604 
-0.330192 0.047654 0.456153 -3.111402 3.337970 -0.306489 
-0.330192 -0.218421 0.456153 -3.111337 -3.337970 -0.306477 
-0.330249 0.047654 0.456440 -2.846613 3.534263 -1.179164 
-0.330249 -0.218421 0.456440 -2.846622 -3.534263 -1.179141 
-0.330412 0.047654 0.456683 -2.178630 3.534350 -2.178771 
-0.330412 -0.218421 0.456683 -2.178647 -3.534350 -2.178753 
-0.330655 0.047654 0.456846 -1.179097 3.534187 -2.846666 
-0.330655 -0.218421 0.456846 -1.179120 -3.534187 -2.846656 
-0.330942 0.047654 0.456903 -0.306508 3.337989 -3.111356 
-0.330942 -0.218421 0.456903 -0.306520 -3.337990 -3.111396 
-0.331592 0.047654 0.456903 1.110730 3.926999 -2.681506 
-0.331592 -0.218421 0.456903 1.110731 -3.927000 -2.681530 
-0.333242 0.047654 0.455253 1.110731 2.356185 -2.681508 
-0.333242 -0.218421 0.455253 1.110730 -2.356185 -2.681506 
-0.334192 0.047654 0.455253 0.306489 3.337970 -3.111402 
-0.334192 -0.218421 0.455253 0.306477 -3.337970 -3.111340 
-0.334479 0.047654 0.455196 1.179164 3.534264 -2.846613 
-0.334479 -0.218421 0.455196 1.179141 -3.534263 -2.846622 
-0.334722 0.047654 0.455033 2.178721 3.534293 -2.178704 
-0.334722 -0.218421 0.455033 2.178704 -3.534293 -2.178721 
-0.334885 0.047654 0.454790 2.846622 3.534263 -1.179141 
-0.334885 -0.218421 0.454790 2.846613 -3.534264 -1.179164 
-0.334942 0.047654 0.454503 3.111340 3.337970 -0.306477 
-0.334942 -0.218421 0.454503 3.111402 -3.337970 -0.306489 
-0.334942 0.047654 0.453553 2.681516 2.356194 -1.110720 
-0.334942 -0.218421 0.453553 2.681518 -2.356194 -1.110721 
-0.336592 0.047654 0.451903 2.681540 3.926991 -1.110721 
-0.336592 -0.218421 0.451903 2.681516 -3.926990 -1.110720 
-0.361542 0.047654 0.450503 -0.306336 3.337870 3.111433 
-0.366192 0.047654 0.450503 0.406522 3.403371 3.088084 
-0.361542 -0.218421 0.450503 -0.306323 -3.337870 3.111368 
-0.366192 -0.218421 0.450503 0.406520 -3.403371 3.088078 
-0.361255 0.047654 0.450560 -1.179010 3.534363 2.846643 
-0.361255 -0.218421 0.450560 -1.178987 -3.534363 2.846653 
-0.361012 0.047654 0.450722 -2.178771 3.534350 2.178630 
-0.361012 -0.218421 0.450722 -2.178753 -3.534350 2.178647 
-0.360849 0.047654 0.450966 -2.846666 3.534187 1.179097 
-0.360849 -0.218421 0.450966 -2.846656 -3.534187 1.179120 
-0.360792 0.047654 0.451253 -3.111356 3.337989 0.306508 
-0.360792 -0.218421 0.451253 -3.111396 -3.337989 0.306520 
-0.360792 0.047654 0.451903 -2.681516 3.926991 -1.110720 
-0.360792 -0.218421 0.451903 -2.681540 -3.926991 -1.110721 
-0.362442 0.047654 0.453553 -2.681518 2.356194 -1.110721 
-0.362442 -0.218421 0.453553 -2.681516 -2.356194 -1.110720 
-0.362442 0.047654 0.454503 -3.111433 3.337870 -0.306336 
-0.362442 -0.218421 0.454503 -3.111371 -3.337870 -0.306323 
-0.362499 0.047654 0.454790 -2.846570 3.534448 -1.179120 
-0.362499 -0.218421 0.454790 -2.846579 -3.534448 -1.179097 
-0.362662 0.047654 0.455033 -2.178630 3.534209 -2.178832 
-0.362662 -0.218421 0.455033 -2.178647 -3.534209 -2.178814 
-0.362905 0.047654 0.455196 -1.179141 3.534264 -2.846622 
-0.362905 -0.218421 0.455196 -1.179164 -3.534263 -2.846613 
-0.363192 0.047654 0.455253 -0.306477 3.337970 -3.111340 
-0.363192 -0.218421 0.455253 -0.306489 -3.337970 -3.111402 
-0.364142 0.047654 0.455253 -1.110720 2.356194 -2.681516 
-0.364142 -0.218421 0.455253 -1.110721 -2.356194 -2.681518 
-0.365792 0.047654 0.456903 -1.110721 3.926990 -2.681540 
-0.365792 -0.218421 0.456903 -1.110720 -3.926990 -2.681516 
-0.366442 0.047654 0.456903 0.306520 3.337990 -3.111396 
-0.366442 -0.218421 0.456903 0.306508 -3.337989 -3.111356 
-0.366729 0.047654 0.456846 1.179194 3.534244 -2.846607 
-0.366729 -0.218421 0.456846 1.179171 -3.534244 -2.846616 
-0.366972 0.047654 0.456683 2.178647 3.534209 -2.178814 
-0.366972 -0.218421 0.456683 2.178630 -3.534209 -2.178832 
-0.367135 0.047654 0.456440 2.846579 3.534448 -1.179097 
-0.367135 -0.218421 0.456440 2.846570 -3.534448 -1.179120 
-0.367192 0.047654 0.456153 3.111368 3.337870 -0.306323 
-0.367192 -0.218421 0.456153 3.111433 -3.337870 -0.306336 
-0.367192 0.047654 0.451503 3.088078 3.403371 0.406520 
-0.367192 -0.218421 0.451503 3.088084 -3.403371 0.406522 
-0.367058 0.047654 0.451003 2.628010 3.665213 1.517242 
-0.367058 -0.218421 0.451003 2.628007 -3.665213 1.517246 
-0.366692 0.047654 0.450637 1.517246 3.665213 2.628007 
-0.366692 -0.218421 0.450637 1.517242 -3.665213 2.628010 
-0.367192 0.047654 0.481853 3.111433 3.337870 0.306336 
-0.367192 0.047654 0.486503 3.088084 3.403371 -0.406522 
-0.367192 -0.218421 0.481853 3.111368 -3.337870 0.306323 
-0.367192 -0.218421 0.486503 3.088078 -3.403371 -0.406520 
-0.367135 0.047654 0.481566 2.846570 3.534448 1.179120 
-0.367135 -0.218421 0.481566 2.846579 -3.534448 1.179097 
-0.366972 0.047654 0.481322 2.178630 3.534209 2.178832 
-0.366972 -0.218421 0.481322 2.178647 -3.534209 2.178814 
-0.366729 0.047654 0.481160 1.179171 3.534244 2.846616 
-0.366729 -0.218421 0.481160 1.179194 -3.534244 2.846607 
-0.366442 0.047654 0.481103 0.306508 3.337989 3.111356 
-0.366442 -0.218421 0.481103 0.306520 -3.337989 3.111396 
-0.365792 0.047654 0.481103 -1.110720 3.926990 2.681516 
-0.365792 -0.218421 0.481103 -1.110721 -3.926990 2.681540 
-0.364142 0.047654 0.482753 -1.110721 2.356194 2.681518 
-0.364142 -0.218421 0.482753 -1.110720 -2.356194 2.681516 
-0.363192 0.047654 0.482753 -0.306489 3.337970 3.111402 
-0.363192 -0.218421 0.482753 -0.306477 -3.337970 3.111340 
-0.362905 0.047654 0.482810 -1.179164 3.534263 2.846613 
-0.362905 -0.218421 0.482810 -1.179141 -3.534264 2.846622 
-0.362662 0.047654 0.482972 -2.178647 3.534209 2.178814 
-0.362662 -0.218421 0.482972 -2.178630 -3.534209 2.178832 
-0.362499 0.047654 0.483216 -2.846579 3.534448 1.179097 
-0.362499 -0.218421 0.483216 -2.846570 -3.534448 1.179120 
-0.362442 0.047654 0.483503 -3.111371 3.337870 0.306323 
-0.362442 -0.218421 0.483503 -3.111433 -3.337870 0.306336 
-0.362442 0.047654 0.484453 -2.681516 2.356194 1.110720 
-0.362442 -0.218421 0.484453 -2.681518 -2.356194 1.110721 
-0.360792 0.047654 0.486103 -2.681540 3.926991 1.110721 
-0.360792 -0.218421 0.486103 -2.681516 -3.926991 1.110720 
-0.360792 0.047654 0.486753 -3.111396 3.337989 -0.306520 
-0.360792 -0.218421 0.486753 -3.111356 -3.337989 -0.306508 
-0.360849 0.047654 0.487040 -2.846656 3.534187 -1.179120 
-0.360849 -0.218421 0.487040 -2.846666 -3.534187 -1.179097 
-0.361012 0.047654 0.487283 -2.178753 3.534350 -2.178647 
-0.361012 -0.218421 0.487283 -2.178771 -3.534350 -2.178630 
-0.361255 0.047654 0.487446 -1.179141 3.534264 -2.846622 
-0.361255 -0.218421 0.487446 -1.179164 -3.534264 -2.846613 
-0.361542 0.047654 0.487503 -0.306477 3.337970 -3.111337 
-0.361542 -0.218421 0.487503 -0.306489 -3.337970 -3.111402 
-0.366192 0.047654 0.487503 0.406604 3.403426 -3.088055 
-0.366192 -0.218421 0.487503 0.406606 -3.403426 -3.088061 
-0.366692 0.047654 0.487369 1.517327 3.665157 -2.627987 
-0.366692 -0.218421 0.487369 1.517330 -3.665157 -2.627985 
-0.367058 0.047654 0.487003 2.628007 3.665213 -1.517246 
-0.367058 -0.218421 0.487003 2.628010 -3.665213 -1.517242 
-0.340642 -0.218421 0.453503 0.000000 -3.141593 3.141591 
-0.341692 -0.218421 0.453503 -1.570797 -1.570796 1.570787 
-0.341692 -0.218421 0.449003 -1.570796 -1.570796 -1.570796 
-0.368692 -0.218421 0.489003 -1.570796 -1.570795 1.570796 
-0.360392 -0.218421 0.484503 1.570796 -4.712389 -1.570797 
-0.355692 -0.218421 0.484503 1.570797 -1.570796 -1.570796 
-0.355692 -0.218421 0.489003 1.570796 -1.570797 1.570796 
-0.368692 -0.218421 0.476003 -1.570796 -1.570796 -1.570797 
-0.346692 -0.218421 0.475003 -0.785395 -3.665189 2.931142 
-0.350692 -0.218421 0.475003 0.785394 -3.665190 2.931145 
-0.360392 -0.218421 0.482823 2.681516 -3.926987 1.110718 
-0.354692 -0.218421 0.471003 -2.931142 -3.665190 -0.785395 
-0.342244 -0.218421 0.477571 -1.896109 -3.403394 2.471064 
-0.364192 -0.218421 0.476003 1.570797 -1.570796 -1.570796 
-0.364192 -0.218421 0.480703 1.570796 -4.712389 -1.570792 
-0.362512 -0.218421 0.480703 -1.110718 -3.926988 -2.681521 
-0.355140 -0.218421 0.477571 1.896120 -3.403397 2.471069 
-0.340642 -0.218421 0.474553 2.720714 -3.141572 -1.570775 
-0.342692 -0.218421 0.471003 2.931144 -3.665194 -0.785401 
-0.342692 -0.218421 0.467003 2.931139 -3.665194 0.785401 
-0.345228 -0.218421 0.467003 -2.627987 -3.665213 1.517267 
-0.340642 -0.218421 0.463452 2.720711 -3.141572 1.570773 
-0.357260 -0.218421 0.475451 -2.471066 -3.403397 -1.896117 
-0.340642 -0.218421 0.460953 0.000000 -6.283185 0.000000 
-0.346692 -0.218421 0.463003 -0.785396 -3.665190 -2.931149 
-0.346692 -0.218421 0.465539 -1.517271 -3.665175 2.628002 
-0.350692 -0.218421 0.463003 0.785402 -3.665194 -2.931140 
-0.348692 -0.218421 0.465003 -0.000006 -3.665200 3.034542 
-0.350692 -0.218421 0.465539 1.517277 -3.665189 2.627992 
-0.354243 -0.218421 0.460953 1.570764 -3.141572 -2.720695 
-0.352156 -0.218421 0.467003 2.627993 -3.665189 1.517277 
-0.357260 -0.218421 0.462555 -2.471072 -3.403394 1.896116 
-0.354692 -0.218421 0.467003 -2.931145 -3.665189 0.785394 
-0.328692 -0.218421 0.489003 1.570796 -1.570794 1.570796 
-0.333192 -0.218421 0.480703 -1.570797 -4.712389 -1.570796 
-0.333192 -0.218421 0.476003 -1.570796 -1.570796 -1.570797 
-0.328692 -0.218421 0.476003 1.570796 -1.570792 -1.570796 
-0.340642 -0.218421 0.489003 0.000000 -3.141593 3.141593 
-0.334872 -0.218421 0.480703 1.110718 -3.926986 -2.681516 
-0.341692 -0.218421 0.489003 -1.570797 -1.570796 1.570787 
-0.341692 -0.218421 0.484503 -1.570796 -1.570796 -1.570796 
-0.340642 -0.218421 0.484503 0.000000 -3.141593 -3.141583 
-0.336992 -0.218421 0.484503 -1.570792 -4.712389 -1.570795 
-0.336992 -0.218421 0.482823 -2.681522 -3.926987 1.110716 
-0.340124 -0.218421 0.475451 2.471066 -3.403413 -1.896088 
-0.340642 -0.218421 0.479173 -2.221445 -3.141597 2.221437 
-0.328692 -0.218421 0.449003 1.570796 -1.570795 -1.570796 
-0.328692 -0.218421 0.460953 3.141593 -3.141589 0.000000 
-0.342244 -0.218421 0.460435 -1.896106 -3.403394 -2.471056 
-0.340642 -0.218421 0.458833 -2.221443 -3.141597 -2.221434 
-0.336992 -0.218421 0.455183 -2.681518 -3.926987 -1.110716 
-0.340642 -0.218421 0.449003 0.000000 -3.141593 -3.141583 
-0.333192 -0.218421 0.457303 -1.570795 -4.712389 1.570792 
-0.334872 -0.218421 0.457303 1.110717 -3.926986 2.681520 
-0.333192 -0.218421 0.460953 -3.141583 -3.141593 0.000000 
-0.328692 -0.218421 0.462003 1.570787 -1.570796 1.570797 
-0.333192 -0.218421 0.462003 -1.570796 -1.570796 1.570796 
-0.336992 -0.218421 0.453503 -1.570796 -4.712389 1.570796 
-0.340124 -0.218421 0.462555 2.471076 -3.403413 1.896091 
-0.355692 -0.218421 0.453503 1.570796 -1.570796 1.570797 
-0.360392 -0.218421 0.453503 1.570792 -4.712389 1.570796 
-0.368692 -0.218421 0.449003 -1.570796 -1.570795 -1.570796 
-0.360392 -0.218421 0.455183 2.681521 -3.926987 -1.110718 
-0.358862 -0.218421 0.460953 -2.221432 -3.141597 2.221441 
-0.355140 -0.218421 0.460435 1.896097 -3.403414 -2.471082 
-0.355692 -0.218421 0.449003 1.570797 -1.570802 -1.570796 
-0.368692 -0.218421 0.460953 -3.141583 -3.141589 0.000000 
-0.362512 -0.218421 0.457303 -1.110716 -3.926987 2.681517 
-0.364192 -0.218421 0.457303 1.570796 -4.712389 1.570796 
